2077 2077 2084 2086 2087 2087 2087 2084 2081 2080 2080 2079 2079 2079 2078 2074 2071 2069 2067 2067 2066 2064 2060 2058 2057 2056 2055 2052 2050 2050 2050 2049 2048 2046 2043 2042 2042 2041 2041 2039 2037 2034 2033 2032 2031 2029 2028 2025 2023 2022 2022 2021 2021 2020 2019 2018 2018 2018 2023 2026 2029 2029 2029 2029 2029 2029 2029 2029 2025 1999 1978 1946 1917 1917 1917 1956 2061 2251 2251 2251 1 0 0 0 2512 2535 2589 2589 2596 2597 2615 2629 2643 2656 2669 2692 2717 2751 2809 2973 3121 3188 3212 3213 3215 3215 3214 3214 3211 3210 3210 3209 3207 3206 3206 3204 3201 3199 3197 3195 3192 3190 3187 3185 3183 3181 3180 3179 3177 3176 3175 3173 3172 3170 3169 3168 3167 3166 3166 3165 3164 3163 3160 3159 3157 3155 3153 3151 3149 3146 3144 3141 3138 3136 3135 3133 3131 3128 3126 3124 3123 3121 3120 3119 3117 3116 3115 3113 3112 3110 3110 3108 3106 3104 3103 3101 3100 3099 3097 3094 3091 3088 3086 3084 3082 3079 3078 3077 3075 3073 3069 3067 3066 3062 3061 3060 3060 3058 3058 3055 3051 3042 3031 3021 3021 3020 3020 3020 3008 3003 3002 3002 3002 3002 3002 3000 2998 2998 2998 2997 2991 2981 2962 2920 2841 2700 2424 2193 2084 2069 2064 2061 2061 2051 2048 2048 2046 2045 2043 2042 2041 2039 2039 2038 2037 2035 2032 2031 2029 2029 2029 2026 2025 2023 2023 2023 2020 2019 2019 2017 2016 2015 2015 2014 2013 2013 2011 2010 2009 2007 2006 2004 2004 2004 2004 2004 2003 2002 2001 2000 2000 2000 1999 1997 1996 1994 1992 1992 1988 1987 1986 1985 1984 1983 1981 1981 1981 1981 1981 1980 1980 1979 1979 1979 1978 1978 1977 1975 1975 1974 1974 1973 1972 1970 1970 1969 1968 1965 1963 1963 1961 1960 1960 1960 1959 1957 1955 1955 1953 1953 1953 1953 1952 1952 1952 1952 1952 1952 1952 1951 1950 1950 1948 1947 1946 1946 1946 1944 1943 1941 1939 1938 1938 1938 1937 1937 1936 1935 1934 1932 1932 1930 1929 1928 1928 1928 1926 1926 1925 1923 1923 1921 1921 1920 1919 1918 1918 1917 1916 1916 1915 1914 1913 1912 1911 1911 1910 1909 1909 1908 1907 1906 1905 1904 1904 1903 1902 1902 1901 1900 1899 1899 1898 1897 1897 1896 1895 1895 1893 1893 1893 1891 1891 1890 1889 1889 1888 1887 1886 1886 1885 1885 1883 1883 1882 1882 1881 1881 1880 1879 1879 1879 1878 1877 1877 1876 1875 1873 1872 1871 1870 1869 1868 1868 1867 1867 1867 1867 1867 1866 1866 1866 1865 1865 1865 1864 1863 1863 1863 1861 1861 1860 1858 1858 1857 1856 1855 1854 1853 1853 1852 1851 1849 1849 1848 1847 1846 1846 1845 1845 1845 1845 1845 1846 1846 1852 1859 1873 1917 2094 2158 2284 2297 2297 2297 2294 2294 2294 2295 2295 2295 2295 2294 2293 2292 2292 2292 2291 2289 2286 2285 2283 2282 2281 2280 2279 2278 2276 2275 2273 2272 2270 2269 2268 2266 2265 2264 2262 2260 2258 2257 2255 2253 2249 2244 2241 2236 2233 2213 2196 2156 2136 2085 2081 2081 2077 2077 2077 2074 2073 2071 2071 2071 2071 2071 2072 2073 2074 2076 2077 2077 2077 2078 2081 2090 2168 2217 2223 2225 2225 2225 2225 2226 2226 2226 2226 2226 2225 2224 2223 2223 2222 2220 2220 2219 2217 2217 2216 2214 2213 2213 2211 2211 2211 2211 2211 2211 2211 2210 2209 2209 2207 2204 2202 2201 2200
2078 2078 2084 2086 2087 2087 2087 2084 2080 2077 2077 2077 2077 2076 2076 2072 2071 2069 2067 2067 2066 2064 2061 2060 2059 2059 2058 2055 2055 2055 2053 2053 2052 2046 2043 2042 2042 2041 2040 2039 2037 2034 2033 2032 2031 2029 2028 2026 2023 2023 2021 2021 2021 2020 2020 2019 2019 2019 2022 2025 2025 2027 2028 2029 2029 2031 2031 2031 2025 2000 1959 1937 1919 1919 1919 1945 2045 2250 2250 2250 0 0 0 0 0 2535 2549 2560 2572 2572 2592 2613 2635 2651 2668 2691 2717 2746 2804 2963 3116 3191 3213 3218 3218 3218 3215 3214 3212 3210 3210 3209 3208 3207 3206 3204 3202 3199 3197 3194 3192 3190 3187 3185 3184 3183 3181 3180 3177 3177 3175 3174 3174 3171 3170 3168 3167 3166 3166 3166 3166 3164 3161 3159 3157 3156 3154 3151 3149 3146 3144 3141 3139 3136 3135 3133 3131 3131 3127 3125 3124 3122 3121 3120 3118 3116 3116 3113 3112 3111 3109 3108 3106 3104 3103 3101 3100 3098 3096 3093 3091 3088 3086 3084 3081 3078 3077 3075 3074 3073 3071 3068 3066 3062 3061 3060 3060 3058 3058 3055 3048 3033 3016 3007 3007 3004 2997 2994 2987 2987 2987 2989 2990 2990 2989 2986 2982 2981 2981 2981 2979 2971 2948 2909 2841 2700 2424 2193 2084 2069 2064 2061 2061 2051 2047 2047 2045 2043 2042 2040 2039 2039 2038 2037 2036 2034 2032 2029 2028 2028 2028 2027 2024 2023 2021 2021 2019 2018 2016 2014 2013 2013 2013 2012 2012 2011 2010 2008 2008 2006 2003 2003 2003 2003 2003 2002 2001 1999 1999 1999 1999 1997 1997 1995 1994 1993 1991 1989 1987 1985 1985 1984 1983 1981 1980 1980 1979 1979 1978 1978 1978 1977 1977 1976 1976 1975 1975 1974 1973 1973 1973 1971 1970 1968 1968 1966 1966 1964 1962 1962 1960 1960 1959 1958 1958 1957 1954 1953 1953 1953 1952 1952 1952 1952 1951 1950 1950 1950 1949 1949 1949 1948 1947 1945 1945 1944 1944 1943 1942 1940 1938 1937 1937 1936 1936 1936 1935 1934 1932 1931 1930 1930 1929 1928 1927 1926 1926 1925 1925 1923 1922 1921 1921 1920 1919 1918 1917 1917 1916 1916 1915 1914 1913 1912 1911 1910 1909 1909 1909 1908 1907 1905 1904 1904 1903 1902 1901 1901 1900 1899 1899 1898 1897 1897 1896 1895 1894 1893 1893 1892 1891 1891 1890 1890 1889 1889 1888 1887 1886 1886 1885 1884 1883 1883 1882 1882 1881 1881 1880 1879 1879 1878 1877 1877 1876 1876 1875 1874 1872 1871 1870 1869 1868 1868 1868 1867 1867 1867 1867 1867 1866 1866 1865 1865 1865 1865 1864 1863 1863 1861 1861 1860 1859 1859 1857 1856 1855 1855 1854 1853 1852 1851 1850 1849 1849 1848 1847 1846 1845 1845 1846 1845 1846 1846 1846 1852 1859 1873 1917 2090 2163 2284 2297 2297 2297 2296 2295 2295 2295 2295 2295 2295 2294 2293 2293 2293 2292 2291 2289 2288 2285 2283 2283 2281 2280 2279 2278 2277 2275 2274 2273 2272 2269 2268 2267 2265 2264 2262 2260 2258 2257 2256 2254 2249 2248 2241 2236 2233 2223 2196 2156 2136 2078 2078 2078 2082 2082 2082 2081 2078 2074 2071 2070 2070 2070 2072 2073 2074 2075 2076 2076 2077 2078 2081 2090 2172 2217 2223 2225 2226 2227 2227 2227 2227 2227 2226 2226 2225 2224 2223 2223 2222 2220 2220 2220 2219 2217 2216 2215 2214 2213 2212 2211 2211 2211 2211 2212 2212 2212 2211 2210 2207 2204 2203 2201 2200
2078 2078 2083 2085 2085 2085 2083 2080 2078 2075 2075 2075 2075 2075 2075 2072 2071 2069 2069 2069 2068 2065 2062 2062 2062 2062 2059 2056 2055 2055 2055 2055 2052 2046 2043 2042 2042 2041 2040 2039 2037 2035 2033 2032 2031 2030 2028 2026 2024 2023 2022 2021 2021 2020 2020 2019 2019 2019 2019 2024 2024 2026 2028 2030 2030 2035 2035 2035 2025 1999 1954 1937 1933 1933 1933 1943 2045 2198 2198 2198 0 0 0 0 0 2533 2544 2551 2554 2564 2580 2592 2620 2642 2668 2691 2717 2746 2804 2959 3115 3195 3216 3218 3218 3218 3216 3214 3213 3212 3211 3211 3210 3208 3206 3204 3202 3200 3197 3194 3192 3190 3188 3186 3184 3183 3182 3180 3179 3178 3177 3175 3174 3172 3171 3169 3168 3167 3167 3167 3166 3165 3162 3160 3157 3156 3155 3152 3150 3146 3144 3141 3139 3137 3135 3134 3132 3131 3128 3126 3125 3123 3121 3120 3119 3116 3116 3113 3112 3111 3109 3108 3106 3104 3103 3101 3100 3098 3096 3093 3091 3088 3086 3084 3081 3078 3077 3075 3074 3072 3071 3069 3068 3064 3063 3060 3056 3051 3047 3043 3032 3013 2997 2997 2993 2985 2981 2975 2950 2943 2943 2943 2946 2948 2948 2952 2948 2948 2952 2952 2952 2952 2907 2877 2841 2700 2424 2192 2078 2067 2064 2061 2061 2051 2047 2044 2042 2040 2039 2038 2038 2038 2038 2036 2035 2031 2029 2028 2028 2027 2027 2027 2024 2021 2019 2018 2018 2017 2015 2011 2011 2011 2011 2011 2010 2009 2008 2008 2006 2002 2002 2002 2001 2001 2001 2001 1997 1997 1996 1996 1995 1995 1995 1993 1992 1990 1989 1987 1985 1984 1984 1983 1981 1979 1979 1978 1978 1977 1976 1975 1973 1973 1973 1973 1973 1972 1972 1971 1971 1971 1971 1969 1969 1967 1966 1965 1965 1963 1961 1960 1959 1959 1958 1957 1957 1955 1953 1952 1952 1951 1951 1950 1949 1949 1949 1948 1948 1948 1948 1948 1947 1946 1946 1944 1942 1942 1941 1940 1939 1938 1937 1935 1935 1935 1935 1934 1933 1933 1932 1930 1929 1929 1927 1925 1925 1925 1925 1924 1923 1922 1921 1921 1921 1920 1918 1917 1917 1917 1916 1915 1914 1914 1912 1911 1911 1909 1909 1908 1908 1906 1905 1905 1903 1903 1903 1902 1901 1901 1900 1899 1898 1897 1897 1896 1895 1894 1893 1893 1892 1892 1891 1890 1890 1889 1889 1888 1887 1887 1886 1886 1885 1884 1883 1883 1882 1881 1881 1881 1880 1879 1879 1878 1877 1876 1876 1876 1875 1873 1873 1871 1870 1869 1868 1868 1868 1867 1867 1867 1867 1867 1866 1866 1866 1866 1865 1865 1864 1863 1863 1862 1861 1860 1860 1859 1858 1857 1856 1855 1855 1853 1853 1852 1851 1850 1849 1849 1848 1846 1846 1846 1846 1846 1846 1846 1846 1852 1858 1873 1915 2090 2153 2284 2297 2297 2297 2296 2295 2295 2295 2295 2295 2295 2294 2294 2293 2293 2293 2291 2290 2288 2286 2283 2283 2282 2281 2280 2278 2277 2276 2274 2273 2272 2270 2268 2267 2265 2264 2262 2260 2258 2257 2256 2254 2249 2248 2241 2236 2233 2228 2196 2156 2136 2077 2077 2077 2084 2084 2084 2081 2078 2074 2071 2070 2070 2070 2071 2073 2074 2075 2075 2075 2075 2078 2081 2090 2172 2217 2223 2227 2227 2227 2228 2228 2227 2227 2227 2226 2225 2224 2223 2223 2221 2220 2220 2220 2219 2217 2216 2215 2214 2213 2212 2211 2211 2211 2211 2213 2213 2213 2212 2210 2209 2206 2204 2201 2200
2078 2078 2083 2084 2084 2084 2080 2077 2073 2073 2073 2074 2075 2075 2075 2072 2071 2070 2069 2069 2068 2066 2065 2064 2063 2062 2059 2056 2055 2055 2055 2055 2052 2047 2043 2042 2042 2041 2040 2039 2037 2035 2033 2032 2032 2030 2028 2027 2024 2023 2022 2022 2021 2021 2020 2019 2019 2019 2019 2023 2023 2024 2026 2028 2033 2034 2034 2034 2022 1995 1950 1946 1931 1935 1935 1935 2002 2175 2175 2175 0 0 0 0 0 2535 2544 2551 2554 2564 2580 2592 2612 2632 2656 2685 2710 2741 2804 2958 3112 3195 3220 3220 3220 3218 3216 3215 3214 3214 3213 3212 3212 3209 3206 3205 3202 3200 3197 3194 3193 3191 3188 3187 3185 3184 3182 3181 3180 3178 3177 3177 3174 3173 3172 3170 3168 3167 3167 3167 3166 3165 3163 3160 3158 3157 3155 3152 3150 3147 3144 3142 3140 3138 3136 3134 3133 3131 3129 3127 3125 3123 3122 3120 3119 3116 3116 3114 3112 3111 3110 3108 3106 3104 3103 3101 3100 3098 3096 3093 3091 3089 3086 3084 3082 3078 3077 3075 3074 3072 3071 3069 3068 3065 3063 3059 3052 3043 3035 3023 3005 2983 2968 2961 2956 2951 2949 2916 2876 2867 2845 2845 2845 2857 2870 2882 2902 2904 2904 2904 2872 2834 2804 2781 2750 2580 2390 2177 2070 2054 2054 2054 2052 2051 2044 2039 2038 2038 2036 2036 2036 2035 2035 2035 2032 2030 2027 2027 2027 2027 2027 2027 2024 2020 2016 2015 2014 2014 2011 2009 2009 2009 2009 2009 2008 2007 2006 2006 2004 2002 1999 1999 1998 1997 1996 1995 1992 1992 1992 1993 1993 1993 1991 1991 1990 1988 1987 1984 1983 1982 1982 1981 1978 1977 1977 1977 1976 1975 1972 1971 1971 1970 1970 1969 1969 1969 1969 1968 1967 1965 1965 1964 1964 1964 1964 1964 1964 1962 1961 1957 1956 1955 1955 1955 1955 1954 1953 1951 1950 1949 1949 1949 1948 1948 1948 1948 1948 1947 1945 1945 1945 1945 1945 1943 1942 1942 1939 1939 1939 1937 1936 1935 1934 1934 1933 1932 1932 1932 1929 1929 1928 1928 1926 1924 1924 1924 1924 1923 1923 1921 1921 1921 1920 1920 1918 1917 1916 1916 1915 1914 1913 1913 1912 1911 1910 1909 1909 1908 1906 1906 1905 1905 1903 1903 1902 1902 1901 1900 1899 1899 1898 1897 1896 1895 1894 1894 1893 1893 1892 1891 1890 1890 1889 1889 1888 1888 1887 1887 1886 1886 1884 1883 1883 1882 1882 1882 1881 1881 1880 1879 1879 1878 1877 1876 1876 1876 1874 1874 1872 1871 1870 1869 1868 1868 1868 1868 1868 1868 1867 1867 1867 1866 1866 1866 1865 1865 1864 1864 1863 1862 1861 1860 1860 1860 1859 1858 1857 1856 1855 1854 1853 1853 1852 1851 1850 1849 1848 1847 1846 1846 1846 1846 1846 1846 1849 1852 1856 1873 1915 2090 2153 2284 2297 2297 2297 2296 2295 2295 2295 2295 2295 2295 2294 2294 2293 2293 2292 2291 2290 2289 2286 2285 2284 2282 2282 2280 2279 2278 2277 2274 2273 2272 2270 2268 2267 2265 2264 2262 2261 2259 2257 2257 2255 2254 2247 2239 2234 2232 2228 2195 2121 2107 2077 2077 2077 2084 2084 2084 2081 2078 2074 2070 2068 2068 2068 2071 2073 2074 2074 2074 2075 2075 2075 2082 2091 2175 2220 2226 2229 2230 2230 2230 2230 2230 2228 2227 2226 2225 2224 2223 2222 2222 2220 2220 2219 2219 2217 2216 2215 2214 2213 2213 2211 2211 2211 2211 2213 2213 2213 2212 2211 2209 2207 2204 2202 2201
2077 2077 2077 2079 2080 2080 2080 2077 2073 2073 2073 2074 2075 2075 2075 2074 2073 2070 2069 2069 2068 2067 2066 2066 2065 2063 2060 2056 2055 2055 2054 2054 2052 2047 2043 2043 2042 2041 2040 2039 2037 2036 2033 2032 2032 2030 2028 2027 2025 2024 2022 2022 2021 2021 2020 2019 2019 2019 2022 2022 2022 2023 2026 2031 2035 2035 2035 2034 2022 1995 1950 1941 1931 1933 1933 1933 1999 1999 1999 0 0 0 0 0 0 2541 2544 2551 2554 2564 2580 2591 2611 2626 2648 2673 2703 2738 2797 2956 3112 3195 3221 3221 3221 3218 3217 3217 3216 3216 3215 3215 3212 3211 3209 3207 3204 3201 3198 3196 3193 3191 3188 3187 3186 3185 3184 3182 3180 3180 3179 3178 3176 3175 3172 3171 3170 3169 3169 3167 3166 3166 3164 3161 3159 3157 3155 3153 3150 3147 3145 3143 3140 3139 3137 3136 3133 3131 3130 3127 3126 3124 3122 3120 3119 3116 3116 3114 3112 3111 3110 3108 3107 3105 3103 3102 3100 3098 3096 3094 3091 3089 3086 3084 3082 3078 3077 3075 3073 3072 3071 3069 3068 3065 3063 3058 3051 3037 3023 2995 2945 2802 2706 2684 2676 2662 2648 2648 2648 2669 2701 2701 2701 2695 2581 2529 2529 2529 2531 2531 2533 2531 2531 2527 2496 2415 2215 2094 2046 2043 2043 2042 2042 2042 2038 2033 2030 2028 2028 2027 2027 2027 2027 2027 2023 2019 2017 2016 2014 2013 2013 2012 2011 2009 2002 2002 2001 2000 2000 2000 2000 2003 2003 2003 2002 1998 1997 1996 1996 1996 1995 1993 1992 1992 1990 1989 1987 1987 1987 1985 1985 1985 1985 1985 1984 1983 1983 1981 1980 1977 1976 1974 1974 1973 1973 1972 1971 1968 1966 1965 1965 1964 1963 1963 1962 1962 1963 1962 1961 1960 1960 1960 1960 1960 1960 1960 1960 1960 1958 1957 1955 1953 1952 1951 1951 1951 1949 1949 1949 1947 1946 1946 1945 1945 1945 1945 1945 1945 1944 1944 1944 1943 1943 1943 1940 1939 1937 1935 1935 1935 1934 1933 1932 1931 1931 1931 1931 1930 1927 1927 1927 1926 1925 1924 1923 1923 1922 1921 1921 1921 1921 1920 1919 1919 1918 1917 1916 1915 1914 1914 1913 1912 1911 1910 1910 1909 1909 1908 1906 1905 1904 1904 1903 1902 1902 1901 1901 1900 1899 1898 1897 1897 1896 1895 1894 1894 1893 1892 1891 1890 1890 1889 1889 1889 1888 1888 1887 1887 1886 1886 1885 1884 1883 1882 1882 1882 1881 1881 1881 1880 1879 1879 1877 1877 1876 1876 1874 1874 1873 1871 1870 1870 1869 1868 1868 1868 1868 1868 1868 1867 1867 1866 1866 1866 1865 1865 1865 1864 1863 1862 1861 1861 1861 1860 1859 1858 1857 1857 1855 1855 1854 1853 1852 1851 1850 1849 1849 1848 1847 1847 1847 1847 1847 1848 1850 1855 1858 1873 1914 2093 2148 2288 2297 2297 2297 2297 2296 2296 2296 2296 2295 2295 2294 2294 2293 2293 2292 2292 2290 2289 2288 2286 2284 2284 2282 2280 2279 2278 2277 2274 2273 2272 2270 2269 2267 2266 2264 2262 2261 2259 2257 2257 2256 2254 2247 2237 2233 2229 2228 2195 2120 2099 2077 2077 2077 2084 2084 2084 2081 2076 2072 2068 2067 2067 2067 2070 2072 2074 2074 2074 2074 2075 2076 2087 2097 2175 2220 2230 2230 2230 2230 2230 2230 2230 2229 2227 2226 2225 2224 2223 2222 2222 2220 2219 2218 2217 2217 2216 2215 2214 2213 2213 2212 2212 2212 2212 2213 2213 2213 2212 2211 2210 2208 2206 2204 2203
2077 2077 2077 2079 2080 2080 2080 2077 2073 2073 2073 2073 2075 2075 2075 2074 2074 2073 2071 2071 2070 2070 2069 2068 2065 2064 2060 2057 2055 2054 2054 2054 2052 2048 2046 2045 2044 2042 2041 2040 2039 2037 2035 2032 2032 2031 2029 2028 2027 2025 2023 2022 2022 2021 2021 2020 2020 2021 2022 2022 2022 2023 2028 2033 2040 2040 2040 2034 2022 2001 1950 1941 1931 1928 1928 1928 1979 1979 1979 0 0 0 0 0 0 2537 2541 2556 2564 2570 2583 2591 2608 2624 2644 2668 2692 2724 2789 2949 3104 3195 3221 3221 3221 3220 3220 3219 3219 3218 3217 3216 3215 3213 3211 3209 3207 3204 3200 3198 3194 3192 3191 3189 3188 3187 3185 3183 3182 3181 3180 3179 3177 3176 3173 3171 3171 3170 3169 3168 3167 3166 3165 3162 3159 3157 3155 3153 3151 3148 3146 3144 3141 3140 3137 3136 3134 3132 3130 3128 3126 3124 3122 3121 3119 3116 3116 3114 3112 3111 3110 3108 3107 3105 3104 3102 3101 3098 3096 3094 3091 3089 3087 3085 3082 3079 3077 3075 3073 3071 3069 3067 3066 3065 3062 3056 3048 3035 3010 2964 2792 2638 2422 2276 2266 2252 2237 2201 2154 2147 2145 2145 2143 2138 2136 2136 2136 2138 2143 2149 2155 2166 2166 2166 2164 2128 2070 2033 2013 2012 2010 2011 2011 2011 2011 2011 2008 2005 2003 2003 2003 2002 2002 1998 1997 1996 1993 1993 1993 1993 1993 1993 1992 1990 1990 1989 1989 1989 1990 1991 1992 1994 1994 1994 1991 1985 1985 1985 1985 1985 1985 1982 1982 1981 1980 1978 1977 1977 1977 1977 1977 1977 1977 1977 1977 1977 1975 1974 1974 1974 1970 1966 1965 1965 1964 1963 1963 1963 1958 1957 1956 1956 1956 1956 1956 1956 1956 1956 1956 1956 1956 1956 1955 1954 1954 1953 1952 1952 1952 1952 1951 1951 1950 1948 1948 1948 1948 1947 1947 1944 1943 1943 1943 1943 1943 1944 1944 1944 1943 1941 1940 1939 1938 1937 1935 1935 1933 1930 1930 1929 1929 1929 1929 1929 1929 1929 1929 1928 1925 1925 1924 1923 1923 1923 1922 1922 1920 1920 1920 1919 1919 1918 1918 1918 1917 1916 1915 1915 1914 1913 1913 1912 1911 1910 1909 1909 1909 1908 1906 1905 1904 1903 1903 1902 1902 1901 1900 1899 1898 1898 1897 1896 1896 1895 1894 1893 1893 1892 1891 1890 1890 1890 1890 1889 1889 1888 1887 1887 1886 1886 1885 1884 1883 1882 1882 1882 1882 1882 1881 1881 1880 1879 1879 1878 1876 1876 1874 1874 1873 1871 1870 1870 1869 1869 1868 1868 1868 1868 1868 1867 1867 1867 1866 1866 1865 1865 1865 1864 1863 1863 1862 1862 1861 1860 1859 1859 1857 1857 1856 1856 1854 1854 1852 1851 1851 1850 1849 1849 1849 1849 1848 1848 1849 1849 1850 1857 1858 1874 1914 2093 2148 2288 2297 2297 2297 2298 2297 2297 2297 2296 2296 2296 2296 2295 2293 2293 2293 2292 2290 2289 2288 2287 2285 2284 2283 2281 2280 2278 2277 2274 2273 2272 2271 2270 2268 2266 2264 2262 2262 2259 2257 2257 2256 2255 2248 2237 2232 2227 2223 2189 2111 2098 2077 2077 2077 2079 2079 2079 2077 2073 2071 2068 2067 2067 2067 2068 2072 2074 2074 2074 2074 2075 2084 2092 2105 2176 2222 2230 2230 2230 2230 2230 2230 2230 2229 2227 2226 2225 2225 2223 2222 2222 2220 2219 2218 2217 2216 2215 2214 2214 2213 2213 2213 2213 2213 2213 2214 2214 2214 2213 2212 2210 2208 2207 2205 2205
2077 2077 2077 2079 2080 2082 2082 2082 2079 2073 2073 2073 2076 2076 2076 2076 2074 2074 2073 2073 2073 2072 2071 2071 2069 2065 2062 2059 2056 2054 2054 2054 2052 2050 2048 2046 2044 2042 2041 2040 2039 2038 2036 2033 2032 2031 2030 2028 2027 2025 2024 2024 2023 2023 2022 2022 2022 2022 2022 2022 2023 2026 2030 2035 2040 2043 2043 2040 2027 2004 1959 1941 1919 1919 1919 1927 1979 1979 1979 0 0 0 0 0 0 2532 2537 2556 2564 2584 2589 2591 2604 2621 2640 2660 2681 2710 2765 2942 3104 3194 3220 3221 3221 3222 3221 3221 3221 3220 3219 3217 3217 3215 3213 3210 3207 3204 3201 3198 3196 3194 3192 3191 3188 3188 3185 3184 3182 3182 3181 3179 3178 3176 3174 3173 3172 3171 3169 3169 3167 3167 3165 3163 3161 3158 3155 3153 3152 3149 3148 3145 3142 3140 3138 3136 3135 3133 3131 3128 3127 3125 3123 3121 3119 3117 3116 3114 3112 3111 3110 3108 3107 3105 3104 3102 3101 3099 3096 3095 3093 3090 3087 3085 3082 3080 3077 3076 3073 3069 3067 3065 3063 3061 3056 3050 3043 3030 2999 2901 2705 2433 2206 2069 2031 2025 2010 2009 2009 2009 2016 2016 2016 2013 2007 2007 2006 2004 2004 2004 2005 2006 2006 2005 2002 1997 1984 1984 1984 1984 1984 1984 1984 1984 1989 1993 1993 1993 1988 1988 1988 1988 1988 1986 1984 1983 1981 1981 1981 1982 1982 1982 1983 1983 1983 1983 1983 1984 1984 1985 1985 1985 1985 1983 1980 1977 1976 1976 1976 1976 1976 1975 1975 1974 1974 1973 1972 1972 1972 1972 1972 1972 1972 1972 1970 1970 1968 1968 1968 1968 1964 1961 1960 1958 1958 1958 1957 1956 1954 1954 1954 1954 1954 1954 1955 1955 1955 1955 1953 1952 1952 1952 1953 1953 1953 1951 1949 1949 1948 1948 1948 1948 1947 1946 1946 1946 1944 1943 1942 1941 1941 1940 1939 1939 1939 1940 1940 1940 1937 1936 1935 1934 1933 1932 1932 1931 1930 1928 1927 1927 1926 1926 1925 1925 1925 1925 1924 1924 1923 1923 1922 1922 1921 1921 1920 1920 1919 1919 1919 1919 1918 1918 1918 1917 1917 1916 1915 1915 1914 1913 1912 1911 1911 1910 1909 1908 1907 1906 1905 1904 1904 1903 1903 1902 1901 1901 1899 1899 1898 1897 1897 1896 1895 1895 1894 1893 1892 1892 1891 1890 1890 1890 1890 1889 1889 1889 1888 1887 1886 1886 1885 1885 1883 1883 1883 1883 1883 1883 1882 1882 1882 1881 1881 1880 1879 1879 1876 1875 1873 1871 1870 1870 1870 1870 1869 1868 1868 1868 1868 1868 1868 1867 1866 1866 1866 1865 1865 1864 1864 1863 1862 1862 1862 1861 1860 1859 1858 1858 1857 1856 1855 1854 1853 1852 1851 1851 1850 1849 1849 1849 1849 1849 1849 1849 1850 1857 1860 1872 1914 2093 2148 2282 2297 2298 2298 2299 2299 2299 2299 2297 2297 2296 2296 2296 2294 2293 2293 2292 2290 2290 2288 2287 2286 2284 2283 2282 2281 2279 2278 2276 2274 2273 2272 2270 2269 2268 2266 2264 2262 2259 2258 2257 2256 2254 2248 2237 2230 2224 2214 2170 2111 2098 2077 2077 2077 2078 2078 2078 2076 2073 2071 2068 2067 2067 2067 2068 2072 2074 2074 2075 2077 2077 2084 2096 2114 2179 2222 2226 2228 2230 2230 2230 2230 2230 2229 2227 2226 2225 2225 2223 2222 2222 2221 2219 2218 2217 2216 2215 2214 2213 2213 2213 2213 2214 2214 2214 2214 2214 2214 2214 2213 2211 2210 2208 2207 2207
2085 2085 2085 2085 2085 2085 2085 2085 2083 2077 2076 2076 2076 2077 2077 2077 2077 2076 2075 2073 2073 2073 2073 2073 2073 2072 2068 2061 2056 2054 2054 2054 2054 2051 2048 2047 2045 2043 2042 2042 2040 2039 2037 2034 2033 2032 2031 2029 2027 2026 2025 2024 2024 2024 2024 2024 2024 2024 2026 2026 2029 2030 2030 2036 2040 2043 2043 2040 2028 2004 1972 1943 1918 1918 1918 1924 1979 1979 1979 0 0 0 0 0 0 0 2533 2556 2564 2584 2589 2589 2601 2621 2640 2660 2681 2710 2748 2942 3099 3192 3217 3224 3225 3225 3224 3223 3221 3221 3220 3219 3218 3217 3214 3211 3207 3204 3201 3198 3196 3195 3193 3191 3189 3188 3186 3184 3183 3182 3181 3180 3179 3176 3175 3173 3172 3171 3170 3169 3168 3167 3165 3163 3161 3159 3156 3154 3152 3151 3149 3146 3144 3141 3139 3137 3136 3134 3131 3129 3127 3126 3124 3122 3120 3117 3116 3114 3112 3111 3110 3108 3107 3105 3104 3102 3101 3099 3097 3095 3093 3091 3089 3086 3083 3080 3078 3076 3073 3069 3066 3064 3061 3056 3051 3047 3039 3025 2996 2890 2697 2425 2167 2035 2017 2012 2010 2007 2003 2001 1999 1998 1998 1997 1996 1994 1992 1991 1990 1988 1987 1986 1985 1984 1984 1983 1983 1983 1983 1983 1983 1982 1982 1982 1984 1986 1987 1987 1987 1987 1987 1986 1986 1985 1983 1983 1979 1977 1977 1977 1977 1977 1977 1977 1977 1975 1975 1975 1977 1977 1977 1974 1974 1972 1972 1972 1970 1969 1968 1968 1968 1969 1969 1969 1969 1969 1969 1969 1969 1970 1970 1970 1969 1967 1967 1966 1966 1965 1965 1963 1961 1959 1957 1955 1953 1953 1952 1952 1952 1952 1952 1952 1951 1951 1951 1951 1951 1950 1950 1950 1949 1949 1949 1950 1950 1950 1949 1948 1947 1947 1946 1944 1944 1943 1943 1942 1941 1940 1939 1939 1938 1938 1937 1936 1936 1936 1936 1936 1934 1934 1933 1932 1931 1931 1930 1929 1928 1927 1926 1926 1925 1924 1924 1924 1924 1923 1923 1922 1922 1922 1921 1920 1920 1919 1918 1918 1918 1918 1918 1918 1918 1917 1917 1917 1916 1915 1915 1914 1914 1913 1912 1911 1910 1909 1908 1908 1906 1905 1905 1904 1904 1903 1902 1902 1901 1901 1899 1898 1897 1897 1896 1896 1895 1894 1894 1893 1892 1892 1891 1890 1890 1890 1890 1890 1889 1889 1888 1888 1887 1886 1885 1885 1884 1884 1884 1884 1884 1883 1883 1883 1883 1882 1882 1882 1882 1881 1877 1875 1874 1872 1871 1871 1870 1870 1869 1869 1869 1869 1868 1868 1868 1867 1867 1866 1866 1866 1865 1865 1864 1864 1863 1863 1862 1861 1860 1860 1859 1858 1858 1857 1856 1855 1853 1852 1851 1851 1850 1850 1850 1850 1850 1849 1849 1849 1851 1858 1860 1872 1920 2085 2170 2275 2299 2299 2299 2299 2299 2299 2299 2298 2298 2297 2297 2296 2294 2294 2293 2292 2291 2291 2289 2287 2286 2285 2283 2282 2281 2280 2279 2277 2275 2274 2273 2271 2270 2268 2267 2264 2262 2259 2258 2258 2257 2255 2249 2243 2230 2222 2204 2160 2111 2097 2075 2075 2075 2078 2078 2078 2076 2073 2071 2070 2069 2068 2068 2068 2072 2074 2077 2078 2081 2081 2086 2098 2130 2194 2228 2228 2228 2228 2228 2230 2230 2230 2229 2228 2227 2226 2225 2224 2223 2222 2221 2220 2218 2217 2216 2215 2214 2213 2213 2213 2213 2215 2215 2215 2215 2215 2214 2214 2214 2212 2211 2210 2210 2209
2094 2093 2092 2086 2086 2085 2085 2085 2084 2081 2079 2078 2078 2078 2078 2078 2078 2077 2076 2074 2073 2073 2073 2073 2073 2072 2068 2061 2057 2056 2056 2055 2055 2051 2048 2047 2045 2043 2043 2043 2041 2039 2037 2036 2034 2032 2031 2029 2027 2026 2025 2025 2024 2024 2025 2025 2025 2026 2030 2030 2031 2031 2036 2039 2040 2040 2040 2039 2028 2011 1973 1943 1918 1918 1918 1924 1982 1982 1982 0 0 0 0 0 0 0 2507 2514 2561 2584 2587 2589 2599 2621 2640 2660 2681 2710 2747 2925 3097 3182 3217 3227 3227 3227 3225 3223 3222 3221 3221 3221 3219 3217 3214 3211 3207 3204 3201 3199 3197 3195 3193 3192 3189 3188 3186 3184 3183 3182 3181 3180 3179 3176 3175 3173 3173 3171 3170 3169 3169 3167 3165 3163 3161 3160 3157 3155 3153 3152 3150 3148 3145 3142 3140 3138 3136 3135 3133 3131 3129 3127 3125 3122 3121 3118 3116 3114 3113 3111 3110 3108 3107 3106 3104 3103 3101 3099 3097 3095 3094 3092 3090 3087 3084 3081 3079 3076 3074 3069 3066 3064 3061 3056 3051 3047 3039 3022 2995 2885 2691 2413 2159 2029 2010 2010 2010 2007 2003 2001 1998 1997 1996 1995 1993 1992 1992 1991 1989 1986 1985 1985 1985 1984 1984 1983 1983 1983 1983 1983 1983 1982 1981 1981 1981 1981 1984 1984 1984 1984 1984 1982 1982 1981 1981 1980 1979 1975 1974 1974 1974 1975 1975 1975 1974 1973 1973 1973 1974 1974 1974 1972 1970 1970 1970 1969 1969 1968 1967 1967 1967 1966 1966 1966 1966 1965 1965 1966 1967 1967 1967 1967 1967 1965 1965 1964 1963 1963 1962 1961 1959 1959 1956 1954 1953 1953 1952 1952 1951 1951 1951 1950 1950 1950 1950 1950 1949 1949 1949 1948 1948 1948 1948 1948 1947 1947 1947 1946 1946 1945 1944 1943 1942 1941 1940 1939 1939 1939 1938 1938 1937 1936 1935 1935 1935 1935 1935 1934 1934 1933 1933 1931 1930 1929 1928 1927 1926 1925 1925 1924 1923 1922 1922 1922 1922 1922 1922 1922 1921 1920 1920 1919 1919 1918 1918 1918 1918 1918 1918 1917 1917 1917 1917 1916 1916 1915 1914 1913 1913 1913 1912 1910 1910 1909 1908 1907 1906 1905 1905 1904 1903 1903 1901 1901 1901 1900 1899 1898 1897 1897 1896 1895 1894 1894 1894 1893 1892 1892 1891 1891 1890 1890 1890 1890 1889 1889 1888 1888 1887 1886 1886 1885 1884 1884 1884 1884 1884 1884 1884 1884 1884 1884 1883 1883 1882 1881 1879 1876 1874 1873 1872 1872 1871 1870 1869 1869 1869 1869 1869 1869 1868 1868 1867 1866 1866 1866 1866 1866 1865 1864 1864 1863 1862 1862 1861 1860 1860 1859 1858 1857 1857 1855 1854 1853 1852 1852 1851 1851 1851 1851 1851 1851 1851 1851 1852 1858 1861 1873 1925 2085 2183 2275 2299 2299 2299 2300 2300 2299 2299 2298 2298 2297 2297 2296 2295 2295 2294 2292 2292 2291 2289 2288 2286 2285 2284 2282 2281 2280 2279 2278 2277 2275 2273 2272 2270 2269 2267 2265 2263 2260 2259 2258 2258 2256 2250 2243 2230 2212 2204 2159 2116 2097 2073 2073 2073 2078 2078 2078 2076 2074 2073 2072 2071 2071 2071 2072 2074 2077 2081 2081 2084 2085 2093 2106 2133 2203 2224 2224 2226 2226 2226 2229 2229 2229 2229 2228 2227 2227 2226 2225 2223 2222 2222 2220 2219 2217 2216 2215 2214 2214 2214 2214 2215 2215 2215 2215 2215 2215 2215 2215 2214 2213 2213 2211 2211 2210
2099 2099 2092 2086 2086 2085 2085 2085 2084 2082 2082 2081 2082 2082 2081 2080 2080 2077 2077 2074 2073 2073 2073 2073 2073 2072 2068 2061 2057 2057 2057 2056 2055 2052 2050 2047 2045 2045 2043 2043 2042 2039 2038 2037 2035 2034 2032 2029 2028 2028 2027 2026 2026 2025 2025 2025 2026 2030 2031 2034 2036 2036 2036 2036 2030 2029 2028 2024 2024 2015 1986 1948 1925 1919 1919 1919 1982 1982 1982 0 0 0 0 0 0 0 2489 2505 2561 2584 2586 2589 2599 2624 2652 2667 2683 2710 2743 2925 3093 3182 3217 3230 3230 3230 3226 3223 3222 3221 3221 3221 3219 3217 3214 3211 3208 3204 3201 3199 3197 3195 3193 3192 3190 3188 3187 3185 3183 3182 3181 3180 3179 3177 3176 3174 3174 3172 3171 3170 3169 3167 3165 3163 3161 3160 3158 3155 3154 3152 3150 3148 3145 3143 3141 3139 3137 3136 3134 3133 3130 3129 3126 3124 3121 3120 3116 3114 3113 3111 3110 3108 3107 3106 3105 3103 3102 3100 3097 3096 3095 3093 3092 3089 3086 3084 3079 3076 3075 3072 3066 3064 3061 3056 3051 3047 3039 3021 2993 2885 2683 2390 2152 2029 2010 2010 2009 2000 2000 1999 1998 1996 1995 1992 1992 1992 1991 1991 1988 1986 1985 1985 1985 1984 1984 1983 1982 1982 1982 1981 1980 1980 1980 1980 1980 1980 1981 1981 1981 1981 1980 1979 1979 1978 1978 1978 1977 1974 1972 1972 1972 1973 1973 1973 1972 1971 1971 1971 1971 1971 1971 1971 1969 1969 1969 1968 1967 1967 1966 1965 1965 1965 1964 1964 1964 1963 1963 1964 1964 1965 1965 1965 1964 1964 1963 1962 1961 1961 1960 1960 1959 1957 1956 1954 1953 1952 1951 1951 1950 1950 1950 1950 1949 1949 1949 1949 1949 1948 1947 1947 1946 1946 1946 1946 1945 1945 1945 1945 1944 1944 1943 1942 1942 1940 1939 1939 1939 1938 1937 1937 1937 1935 1935 1935 1934 1934 1933 1933 1933 1932 1932 1930 1929 1928 1927 1925 1924 1924 1923 1922 1922 1921 1920 1920 1920 1920 1920 1919 1919 1919 1919 1919 1918 1918 1918 1918 1918 1917 1917 1917 1916 1916 1916 1916 1916 1915 1914 1913 1913 1912 1912 1910 1910 1909 1908 1907 1906 1905 1904 1903 1903 1902 1901 1901 1900 1899 1898 1897 1897 1896 1896 1895 1894 1894 1894 1893 1892 1892 1891 1891 1890 1890 1890 1890 1890 1889 1889 1888 1887 1887 1886 1886 1885 1885 1885 1885 1885 1885 1885 1885 1885 1885 1884 1883 1883 1882 1879 1876 1875 1874 1873 1873 1871 1870 1870 1870 1869 1869 1869 1869 1868 1868 1867 1866 1866 1866 1866 1866 1865 1864 1864 1864 1863 1862 1862 1861 1860 1860 1859 1858 1857 1856 1855 1854 1853 1853 1852 1852 1852 1852 1852 1851 1851 1851 1852 1859 1863 1873 1926 2085 2193 2275 2299 2299 2299 2300 2300 2299 2299 2299 2298 2297 2297 2297 2296 2295 2294 2293 2292 2291 2289 2288 2286 2285 2284 2283 2282 2280 2280 2279 2278 2276 2274 2272 2271 2270 2268 2265 2263 2260 2260 2260 2258 2256 2250 2244 2232 2211 2201 2158 2122 2081 2072 2072 2072 2078 2078 2078 2076 2075 2074 2073 2072 2072 2072 2073 2074 2077 2081 2083 2088 2089 2099 2110 2133 2210 2224 2224 2226 2226 2226 2229 2229 2229 2229 2228 2228 2227 2226 2225 2224 2223 2222 2221 2220 2218 2217 2217 2215 2215 2215 2215 2216 2216 2216 2216 2216 2216 2216 2215 2215 2215 2213 2213 2212 2212
2099 2099 2092 2087 2086 2085 2084 2084 2084 2084 2084 2084 2085 2085 2085 2084 2082 2078 2078 2076 2072 2070 2069 2069 2068 2068 2065 2062 2058 2057 2057 2057 2055 2053 2051 2049 2046 2045 2045 2044 2042 2040 2039 2038 2037 2035 2033 2032 2030 2030 2028 2028 2027 2027 2027 2027 2029 2031 2032 2034 2042 2042 2042 2036 2015 2005 2005 2005 2009 2009 2009 1973 1953 1931 1931 1931 1982 1982 1982 0 0 0 0 0 0 0 2485 2504 2552 2581 2583 2584 2601 2632 2652 2667 2683 2710 2743 2925 3093 3182 3219 3230 3230 3230 3226 3222 3222 3221 3221 3221 3219 3217 3214 3211 3208 3204 3202 3199 3197 3196 3194 3192 3191 3189 3187 3185 3183 3182 3182 3180 3179 3178 3176 3175 3174 3173 3172 3171 3170 3168 3165 3163 3161 3160 3158 3155 3154 3152 3151 3149 3146 3144 3141 3139 3139 3137 3136 3134 3131 3129 3126 3124 3122 3120 3119 3116 3113 3112 3110 3109 3108 3107 3105 3103 3102 3100 3098 3097 3096 3093 3092 3090 3088 3085 3080 3078 3075 3072 3070 3065 3061 3057 3053 3051 3039 3020 2974 2885 2681 2376 2139 2024 2010 2009 2006 2000 2000 1999 1998 1996 1995 1992 1991 1991 1991 1991 1988 1986 1985 1985 1985 1985 1985 1983 1982 1982 1981 1980 1979 1979 1979 1979 1978 1978 1978 1978 1978 1978 1978 1977 1977 1977 1976 1975 1973 1972 1971 1971 1971 1971 1971 1971 1970 1970 1970 1970 1969 1969 1968 1968 1967 1967 1967 1966 1966 1966 1965 1964 1963 1963 1963 1963 1963 1962 1962 1962 1962 1964 1964 1964 1962 1962 1961 1959 1959 1959 1959 1959 1958 1956 1954 1953 1952 1951 1951 1950 1949 1949 1949 1949 1949 1948 1948 1948 1947 1947 1946 1946 1945 1945 1945 1944 1944 1944 1943 1943 1943 1942 1942 1941 1941 1939 1939 1938 1938 1937 1937 1936 1936 1935 1934 1933 1933 1933 1933 1933 1932 1932 1931 1930 1928 1927 1925 1925 1923 1923 1922 1921 1920 1920 1920 1920 1919 1919 1919 1919 1919 1919 1919 1918 1918 1918 1917 1917 1917 1917 1917 1917 1916 1916 1916 1916 1915 1914 1914 1912 1912 1912 1911 1910 1910 1909 1908 1907 1906 1905 1904 1903 1903 1902 1901 1901 1900 1899 1897 1897 1896 1896 1895 1895 1894 1894 1893 1893 1892 1892 1891 1891 1891 1890 1890 1890 1890 1890 1889 1888 1888 1887 1887 1886 1886 1886 1886 1886 1886 1886 1886 1886 1885 1885 1884 1884 1883 1882 1880 1877 1876 1875 1874 1873 1871 1870 1870 1870 1870 1870 1870 1869 1869 1868 1867 1867 1867 1867 1866 1866 1865 1865 1864 1864 1864 1862 1862 1862 1861 1860 1860 1859 1858 1857 1856 1855 1854 1853 1852 1852 1852 1852 1852 1851 1851 1851 1852 1860 1863 1873 1927 2097 2205 2278 2294 2297 2299 2299 2299 2299 2299 2299 2299 2299 2298 2297 2297 2296 2294 2294 2292 2291 2290 2289 2287 2286 2285 2283 2283 2281 2281 2280 2278 2276 2274 2273 2272 2271 2269 2267 2265 2263 2262 2261 2260 2255 2250 2244 2232 2210 2201 2159 2133 2077 2074 2074 2074 2078 2078 2078 2077 2075 2074 2073 2073 2073 2073 2074 2075 2077 2081 2083 2088 2097 2099 2110 2134 2210 2224 2224 2226 2226 2226 2228 2228 2229 2228 2228 2228 2227 2226 2226 2224 2224 2223 2221 2220 2219 2219 2218 2218 2217 2217 2217 2217 2217 2217 2217 2217 2217 2217 2217 2215 2215 2214 2214 2213 2212
2099 2099 2091 2087 2086 2084 2084 2084 2084 2084 2084 2084 2087 2088 2088 2088 2083 2080 2080 2079 2076 2070 2069 2069 2068 2068 2065 2062 2060 2058 2058 2058 2057 2055 2054 2049 2047 2046 2045 2044 2042 2040 2039 2039 2038 2036 2035 2033 2032 2031 2030 2030 2028 2028 2028 2028 2030 2031 2032 2035 2043 2043 2043 2020 2008 2005 2005 2005 2017 2017 2017 1992 1960 1940 1940 1940 1992 1992 1992 0 0 0 0 0 0 0 2463 2500 2552 2576 2580 2584 2610 2632 2652 2667 2683 2704 2737 2924 3090 3185 3223 3229 3229 3229 3226 3222 3221 3221 3221 3221 3219 3217 3214 3211 3208 3205 3202 3199 3197 3196 3195 3193 3191 3190 3187 3185 3184 3183 3182 3180 3180 3179 3176 3175 3174 3174 3172 3171 3170 3168 3165 3164 3162 3160 3158 3155 3154 3152 3151 3149 3146 3144 3142 3139 3139 3138 3137 3135 3132 3129 3127 3125 3123 3121 3119 3118 3114 3113 3112 3110 3108 3107 3106 3105 3102 3100 3098 3097 3096 3094 3093 3091 3088 3085 3082 3079 3077 3075 3071 3065 3061 3057 3054 3051 3039 3018 2968 2883 2648 2355 2126 2019 2004 2004 2003 2000 2000 1999 1997 1996 1995 1992 1991 1991 1991 1991 1988 1987 1987 1986 1986 1986 1985 1983 1982 1982 1981 1980 1979 1979 1979 1978 1978 1977 1977 1976 1976 1976 1975 1975 1974 1974 1973 1973 1972 1971 1971 1970 1970 1970 1969 1969 1969 1968 1968 1967 1967 1967 1967 1967 1966 1966 1966 1966 1966 1965 1964 1964 1963 1963 1962 1962 1961 1961 1961 1961 1961 1961 1961 1961 1961 1960 1959 1957 1957 1957 1957 1957 1956 1954 1954 1952 1951 1950 1950 1949 1949 1949 1948 1948 1948 1947 1946 1946 1946 1946 1945 1945 1945 1944 1943 1943 1943 1943 1942 1942 1942 1942 1941 1940 1940 1939 1938 1937 1937 1936 1936 1935 1935 1934 1933 1933 1933 1933 1933 1932 1932 1931 1930 1929 1928 1926 1925 1924 1923 1921 1921 1920 1920 1919 1919 1919 1918 1918 1918 1918 1918 1918 1918 1918 1918 1917 1917 1917 1917 1917 1917 1916 1916 1916 1915 1915 1915 1914 1914 1912 1912 1912 1911 1910 1910 1909 1908 1907 1906 1905 1904 1903 1901 1901 1900 1900 1898 1897 1897 1897 1896 1896 1895 1894 1894 1893 1893 1893 1892 1892 1891 1891 1891 1891 1890 1890 1890 1890 1889 1888 1888 1888 1887 1886 1886 1886 1887 1887 1887 1887 1887 1887 1886 1886 1884 1884 1884 1882 1881 1878 1876 1876 1875 1873 1872 1871 1870 1870 1870 1870 1870 1869 1869 1868 1868 1867 1867 1867 1867 1866 1865 1865 1865 1864 1864 1863 1863 1863 1862 1861 1861 1860 1859 1858 1856 1855 1854 1854 1853 1853 1853 1852 1852 1851 1851 1851 1854 1860 1863 1878 1953 2106 2207 2282 2293 2295 2296 2296 2296 2299 2299 2299 2299 2299 2299 2297 2297 2296 2295 2294 2292 2291 2290 2289 2287 2286 2285 2284 2283 2281 2281 2280 2279 2276 2275 2273 2273 2272 2271 2269 2268 2267 2266 2262 2260 2255 2250 2243 2232 2205 2198 2158 2133 2076 2074 2074 2074 2079 2079 2079 2077 2075 2074 2073 2073 2073 2074 2074 2075 2077 2082 2085 2089 2097 2099 2110 2136 2211 2224 2225 2226 2226 2226 2228 2228 2228 2228 2228 2228 2228 2228 2226 2226 2224 2224 2222 2221 2221 2221 2221 2220 2220 2218 2218 2218 2218 2218 2218 2218 2218 2217 2217 2217 2216 2214 2214 2213 2213
2094 2089 2087 2087 2086 2084 2084 2083 2083 2084 2084 2084 2087 2089 2089 2089 2086 2084 2083 2081 2079 2074 2069 2069 2068 2068 2065 2064 2063 2062 2062 2060 2058 2056 2055 2052 2050 2047 2046 2044 2042 2040 2040 2039 2038 2037 2037 2035 2033 2032 2031 2030 2029 2029 2029 2029 2030 2031 2032 2035 2035 2035 2031 2016 2005 2005 2005 2005 2017 2017 2017 1992 1960 1940 1940 1940 1982 1982 1982 0 0 0 0 0 0 0 2463 2481 2543 2571 2576 2584 2610 2632 2649 2655 2670 2691 2735 2921 3090 3185 3223 3229 3229 3229 3225 3221 3221 3220 3220 3220 3219 3217 3215 3211 3209 3205 3203 3201 3199 3197 3196 3195 3193 3192 3190 3186 3185 3183 3182 3181 3180 3179 3177 3175 3174 3174 3173 3171 3169 3168 3166 3163 3162 3160 3158 3156 3154 3153 3151 3149 3147 3144 3143 3141 3139 3139 3137 3135 3133 3130 3128 3125 3123 3122 3120 3118 3115 3113 3113 3111 3109 3108 3107 3105 3103 3101 3100 3098 3097 3095 3093 3091 3088 3085 3083 3080 3078 3077 3071 3065 3061 3058 3054 3051 3037 3007 2958 2871 2623 2330 2108 2011 1999 1998 1997 1997 1997 1996 1996 1996 1994 1992 1991 1991 1991 1991 1988 1987 1987 1986 1986 1986 1985 1983 1982 1981 1981 1980 1978 1978 1978 1977 1977 1976 1976 1975 1975 1975 1975 1974 1974 1973 1973 1972 1971 1971 1970 1970 1969 1968 1968 1967 1967 1967 1967 1966 1966 1966 1966 1965 1965 1965 1965 1965 1965 1965 1964 1963 1963 1962 1962 1960 1960 1960 1960 1960 1960 1960 1960 1959 1959 1958 1958 1957 1956 1956 1956 1956 1953 1953 1952 1951 1950 1949 1948 1948 1948 1948 1948 1948 1947 1946 1946 1946 1945 1945 1945 1945 1944 1944 1943 1942 1942 1942 1942 1941 1940 1940 1940 1940 1940 1938 1937 1936 1936 1936 1936 1935 1933 1933 1932 1932 1932 1932 1932 1932 1931 1931 1930 1928 1928 1926 1925 1924 1923 1921 1921 1920 1920 1919 1919 1918 1918 1918 1918 1918 1918 1918 1918 1917 1917 1917 1916 1916 1916 1916 1916 1915 1915 1915 1915 1915 1914 1914 1914 1912 1912 1912 1911 1910 1910 1909 1908 1907 1906 1905 1904 1903 1901 1900 1900 1899 1898 1897 1897 1896 1896 1895 1895 1894 1893 1893 1893 1893 1892 1892 1891 1891 1891 1891 1891 1891 1890 1890 1890 1889 1889 1888 1888 1887 1887 1887 1888 1888 1888 1888 1887 1887 1887 1887 1886 1884 1884 1882 1881 1879 1878 1876 1876 1874 1872 1871 1870 1870 1870 1870 1870 1870 1869 1869 1868 1868 1868 1868 1868 1867 1867 1866 1865 1865 1865 1864 1864 1864 1862 1862 1861 1861 1859 1858 1857 1856 1855 1855 1854 1854 1853 1853 1852 1851 1851 1851 1855 1861 1863 1888 1975 2108 2207 2284 2293 2295 2296 2296 2296 2297 2298 2300 2300 2300 2299 2298 2298 2296 2295 2294 2293 2292 2290 2289 2288 2286 2286 2285 2284 2283 2281 2280 2279 2277 2275 2274 2273 2272 2271 2270 2269 2267 2266 2264 2260 2255 2250 2243 2226 2195 2188 2158 2133 2076 2076 2076 2080 2080 2080 2079 2077 2075 2074 2074 2074 2075 2075 2076 2077 2077 2083 2086 2089 2097 2098 2106 2144 2211 2225 2226 2227 2227 2228 2228 2228 2228 2228 2228 2228 2228 2228 2227 2226 2224 2224 2222 2221 2221 2221 2221 2221 2221 2220 2220 2219 2219 2219 2219 2218 2218 2218 2218 2218 2216 2215 2215 2214 2213
2089 2089 2087 2087 2087 2085 2083 2083 2081 2081 2081 2086 2090 2090 2090 2089 2086 2085 2084 2082 2080 2075 2071 2071 2071 2071 2069 2067 2067 2067 2066 2062 2059 2058 2056 2054 2052 2048 2047 2045 2043 2042 2041 2039 2038 2037 2037 2035 2034 2032 2031 2030 2029 2029 2029 2030 2031 2031 2032 2035 2035 2035 2026 2016 2005 2005 2005 2013 2030 2030 2030 1992 1960 1940 1940 1940 1955 1955 1955 0 0 0 0 0 0 1 2463 2481 2520 2564 2573 2584 2610 2624 2635 2643 2656 2679 2717 2919 3087 3185 3223 3226 3226 3226 3222 3221 3220 3220 3220 3220 3219 3217 3215 3212 3209 3206 3204 3202 3200 3198 3197 3195 3194 3193 3191 3188 3185 3184 3183 3182 3181 3179 3177 3175 3174 3174 3173 3171 3169 3167 3166 3164 3162 3159 3158 3156 3154 3153 3151 3150 3147 3145 3143 3141 3140 3139 3138 3135 3133 3130 3129 3126 3124 3122 3120 3118 3117 3115 3114 3112 3111 3109 3108 3106 3104 3102 3101 3099 3097 3095 3093 3091 3089 3086 3083 3080 3078 3078 3074 3066 3061 3060 3054 3049 3032 2987 2929 2831 2560 2269 2088 2004 1996 1996 1996 1996 1996 1996 1996 1995 1994 1992 1991 1991 1990 1989 1988 1987 1987 1987 1986 1986 1985 1982 1981 1981 1981 1980 1978 1978 1977 1977 1977 1976 1976 1975 1975 1975 1975 1974 1974 1973 1973 1972 1971 1970 1970 1969 1969 1968 1967 1967 1966 1966 1966 1965 1964 1964 1964 1964 1965 1965 1965 1965 1964 1964 1964 1963 1963 1962 1961 1960 1960 1960 1960 1960 1959 1959 1958 1958 1958 1958 1957 1957 1955 1955 1955 1953 1952 1952 1951 1950 1949 1949 1948 1948 1948 1948 1947 1947 1947 1946 1946 1945 1945 1944 1944 1943 1943 1943 1941 1941 1941 1941 1940 1940 1940 1940 1939 1939 1939 1937 1937 1935 1935 1935 1935 1934 1932 1932 1931 1931 1931 1931 1931 1930 1930 1929 1929 1928 1927 1926 1925 1924 1923 1921 1921 1920 1920 1919 1918 1918 1917 1917 1917 1917 1917 1917 1917 1917 1917 1916 1916 1916 1916 1916 1915 1915 1914 1914 1914 1914 1913 1913 1913 1912 1912 1911 1911 1910 1910 1909 1908 1907 1906 1905 1904 1902 1901 1900 1899 1899 1898 1897 1896 1896 1896 1895 1895 1894 1893 1893 1893 1892 1891 1891 1891 1891 1891 1891 1891 1891 1891 1890 1890 1890 1890 1889 1889 1889 1888 1889 1889 1888 1888 1888 1888 1888 1888 1887 1887 1885 1885 1884 1882 1879 1878 1877 1876 1874 1873 1872 1871 1871 1871 1870 1870 1870 1870 1869 1869 1868 1868 1868 1868 1868 1867 1867 1866 1865 1865 1865 1864 1864 1863 1862 1862 1861 1860 1860 1858 1857 1856 1855 1854 1854 1854 1853 1852 1852 1852 1853 1856 1862 1863 1889 2012 2108 2214 2288 2293 2295 2296 2296 2296 2297 2299 2301 2301 2301 2300 2299 2298 2297 2295 2294 2294 2293 2292 2290 2289 2288 2287 2286 2285 2283 2282 2280 2279 2278 2276 2275 2273 2272 2271 2270 2269 2269 2266 2264 2260 2255 2249 2237 2221 2186 2162 2154 2126 2076 2076 2076 2084 2084 2084 2081 2077 2075 2075 2075 2077 2077 2078 2079 2080 2081 2085 2085 2089 2095 2098 2105 2163 2211 2224 2225 2227 2230 2230 2230 2229 2229 2229 2229 2229 2229 2228 2227 2226 2225 2224 2222 2222 2221 2221 2221 2221 2221 2221 2221 2220 2220 2220 2219 2219 2219 2219 2219 2218 2217 2216 2215 2214 2214
2089 2089 2089 2088 2088 2088 2083 2083 2081 2081 2081 2086 2089 2089 2089 2089 2086 2085 2084 2084 2081 2076 2074 2073 2073 2073 2073 2070 2070 2070 2067 2065 2061 2059 2057 2054 2052 2049 2047 2045 2043 2042 2041 2039 2038 2037 2037 2035 2034 2032 2031 2030 2030 2030 2030 2030 2032 2032 2033 2035 2035 2035 2026 2016 2016 2016 2017 2025 2025 2025 2010 1965 1943 1929 1929 1929 1949 2100 2244 2244 2244 0 0 0 0 1 2474 2481 2520 2558 2560 2587 2594 2609 2622 2638 2655 2678 2717 2914 3084 3174 3217 3223 3223 3223 3222 3221 3220 3220 3220 3220 3219 3217 3215 3213 3210 3207 3204 3203 3201 3199 3198 3197 3195 3193 3192 3189 3186 3184 3183 3182 3181 3179 3177 3175 3175 3173 3173 3171 3169 3168 3166 3164 3162 3159 3158 3156 3154 3153 3151 3150 3148 3146 3144 3142 3141 3140 3139 3136 3134 3132 3130 3128 3125 3123 3120 3119 3118 3116 3114 3112 3111 3111 3109 3107 3105 3104 3102 3100 3097 3095 3093 3091 3089 3086 3084 3081 3080 3078 3074 3067 3063 3059 3054 3046 3024 2987 2920 2831 2560 2261 2079 2003 1996 1996 1996 1996 1996 1996 1995 1995 1994 1992 1991 1991 1990 1989 1988 1987 1987 1987 1986 1985 1984 1982 1981 1981 1981 1980 1979 1978 1977 1977 1976 1976 1975 1975 1974 1974 1974 1974 1973 1973 1972 1972 1971 1970 1970 1969 1969 1968 1967 1966 1966 1966 1965 1965 1964 1964 1964 1964 1964 1964 1964 1964 1964 1964 1964 1963 1963 1962 1961 1960 1960 1960 1960 1959 1958 1958 1958 1958 1958 1957 1957 1956 1955 1955 1955 1953 1952 1951 1951 1949 1949 1948 1948 1948 1948 1947 1947 1947 1946 1946 1946 1945 1945 1944 1943 1943 1943 1942 1941 1940 1940 1939 1939 1939 1939 1939 1938 1938 1937 1936 1936 1935 1935 1934 1934 1933 1932 1931 1931 1931 1931 1931 1930 1930 1930 1929 1929 1928 1927 1926 1925 1924 1923 1922 1921 1920 1919 1919 1918 1917 1917 1917 1916 1916 1916 1916 1916 1916 1916 1916 1915 1915 1915 1915 1915 1915 1914 1914 1914 1913 1913 1913 1912 1912 1912 1912 1911 1910 1909 1909 1908 1907 1906 1905 1903 1902 1901 1900 1899 1899 1898 1896 1895 1895 1894 1894 1894 1893 1892 1892 1892 1891 1891 1891 1891 1891 1891 1891 1891 1891 1891 1891 1891 1891 1890 1890 1890 1890 1890 1889 1889 1889 1889 1889 1889 1889 1888 1888 1887 1887 1886 1885 1882 1880 1879 1877 1876 1874 1873 1872 1871 1871 1871 1871 1871 1870 1870 1869 1869 1869 1869 1869 1868 1868 1868 1867 1866 1866 1866 1865 1865 1864 1864 1862 1862 1862 1861 1860 1859 1858 1857 1856 1854 1854 1854 1853 1853 1853 1853 1853 1857 1862 1865 1889 2024 2137 2217 2294 2294 2299 2299 2299 2299 2300 2300 2301 2301 2301 2300 2300 2299 2298 2297 2295 2294 2293 2292 2290 2289 2288 2287 2286 2285 2284 2282 2281 2280 2278 2277 2275 2274 2272 2272 2270 2269 2269 2266 2263 2261 2258 2249 2236 2221 2182 2162 2154 2103 2077 2077 2077 2084 2084 2084 2081 2079 2077 2077 2077 2077 2079 2081 2083 2084 2084 2085 2085 2088 2095 2096 2104 2171 2211 2224 2226 2228 2230 2230 2230 2229 2229 2229 2229 2229 2229 2228 2227 2226 2225 2223 2222 2222 2222 2222 2222 2222 2222 2222 2222 2222 2221 2221 2220 2220 2220 2219 2219 2218 2218 2218 2217 2216 2214
2088 2091 2092 2092 2092 2092 2089 2085 2081 2081 2081 2088 2089 2089 2089 2087 2085 2085 2085 2085 2083 2079 2076 2074 2074 2074 2074 2072 2070 2070 2070 2068 2064 2062 2058 2054 2052 2049 2047 2045 2044 2042 2041 2040 2038 2037 2037 2035 2034 2032 2032 2030 2030 2030 2031 2032 2033 2033 2033 2033 2033 2033 2026 2018 2017 2017 2018 2024 2024 2024 2010 1965 1938 1930 1930 1930 1975 2087 2244 2244 2244 0 0 0 0 0 2474 2485 2519 2555 2560 2587 2594 2605 2622 2638 2655 2678 2716 2912 3072 3172 3214 3219 3221 3222 3222 3222 3221 3220 3220 3220 3219 3218 3215 3214 3212 3207 3204 3203 3201 3199 3198 3197 3196 3194 3192 3189 3187 3185 3183 3182 3180 3178 3177 3175 3175 3173 3173 3171 3169 3168 3166 3164 3162 3159 3158 3156 3155 3153 3151 3150 3148 3146 3145 3143 3141 3141 3139 3137 3134 3133 3130 3128 3126 3124 3122 3120 3119 3117 3115 3114 3114 3112 3109 3108 3106 3105 3103 3101 3099 3096 3094 3092 3089 3087 3085 3083 3081 3080 3076 3069 3065 3059 3053 3043 3024 2987 2920 2831 2560 2261 2079 2003 1995 1995 1995 1995 1994 1995 1994 1994 1993 1993 1992 1991 1990 1989 1988 1988 1987 1987 1986 1985 1984 1982 1981 1981 1981 1980 1979 1978 1977 1977 1976 1976 1975 1975 1974 1974 1974 1974 1973 1973 1972 1972 1971 1970 1970 1969 1969 1968 1967 1966 1966 1966 1965 1965 1964 1964 1964 1964 1964 1964 1964 1964 1964 1964 1964 1963 1963 1962 1961 1960 1960 1960 1959 1959 1958 1958 1958 1958 1958 1957 1957 1956 1955 1955 1955 1953 1952 1951 1951 1949 1948 1948 1948 1948 1948 1947 1947 1947 1946 1946 1946 1945 1945 1944 1943 1942 1942 1941 1941 1939 1938 1938 1938 1938 1937 1937 1937 1937 1935 1935 1935 1934 1934 1933 1933 1932 1931 1931 1931 1931 1931 1931 1930 1930 1930 1929 1929 1928 1927 1926 1926 1924 1923 1922 1921 1920 1920 1919 1918 1917 1917 1917 1916 1916 1916 1915 1915 1915 1915 1915 1915 1915 1915 1915 1914 1914 1914 1914 1913 1913 1913 1913 1912 1912 1912 1911 1911 1910 1910 1909 1908 1907 1906 1905 1904 1902 1901 1900 1899 1899 1897 1896 1895 1894 1894 1893 1893 1893 1892 1891 1891 1891 1891 1891 1891 1891 1891 1891 1891 1891 1891 1891 1891 1891 1891 1890 1890 1890 1890 1890 1890 1890 1890 1890 1890 1889 1889 1889 1888 1887 1886 1885 1883 1881 1879 1878 1877 1875 1874 1872 1872 1872 1872 1872 1871 1871 1870 1870 1869 1869 1869 1869 1869 1868 1868 1867 1867 1867 1867 1866 1865 1865 1864 1863 1863 1862 1861 1860 1859 1859 1857 1856 1855 1855 1855 1854 1853 1853 1853 1853 1857 1860 1865 1893 2024 2143 2225 2303 2304 2306 2305 2304 2304 2303 2303 2303 2303 2302 2301 2300 2299 2299 2297 2296 2295 2294 2292 2291 2289 2288 2287 2286 2285 2284 2282 2281 2281 2280 2278 2276 2276 2274 2273 2271 2269 2269 2266 2263 2262 2258 2248 2235 2220 2182 2162 2154 2100 2076 2076 2076 2080 2082 2082 2082 2080 2078 2078 2078 2078 2080 2082 2084 2084 2084 2085 2085 2087 2090 2095 2102 2173 2214 2224 2227 2230 2230 2230 2230 2230 2230 2230 2230 2230 2230 2228 2228 2226 2225 2223 2222 2222 2222 2222 2222 2222 2222 2222 2222 2222 2222 2221 2221 2220 2220 2219 2219 2219 2218 2218 2218 2216 2214
2088 2091 2092 2094 2095 2095 2095 2093 2092 2092 2092 2092 2092 2092 2089 2087 2086 2086 2085 2085 2085 2082 2078 2075 2074 2074 2074 2073 2072 2071 2070 2069 2065 2063 2058 2055 2052 2049 2047 2046 2044 2042 2041 2040 2038 2037 2036 2035 2034 2032 2032 2031 2031 2031 2032 2033 2033 2033 2033 2033 2033 2033 2033 2030 2027 2027 2027 2025 2023 2023 2010 1965 1938 1930 1930 1930 1975 2065 2239 2239 2239 0 0 0 0 0 2474 2485 2520 2554 2560 2587 2594 2605 2622 2638 2655 2678 2717 2903 3065 3171 3214 3219 3221 3222 3222 3222 3222 3222 3221 3220 3219 3218 3215 3214 3212 3208 3206 3203 3202 3200 3198 3197 3196 3195 3193 3191 3189 3187 3184 3182 3180 3178 3177 3175 3175 3173 3173 3172 3170 3168 3166 3166 3163 3160 3159 3157 3156 3155 3153 3150 3150 3147 3145 3144 3142 3142 3139 3138 3135 3133 3131 3128 3126 3124 3122 3121 3119 3118 3116 3115 3114 3113 3111 3109 3108 3105 3104 3101 3100 3097 3094 3092 3089 3087 3086 3084 3083 3081 3077 3071 3065 3060 3053 3043 3024 2996 2920 2836 2571 2261 2079 2003 1996 1996 1996 1995 1994 1994 1993 1993 1993 1993 1992 1991 1990 1989 1988 1988 1988 1986 1986 1985 1984 1982 1982 1981 1980 1980 1979 1978 1977 1977 1976 1976 1975 1975 1974 1974 1974 1974 1973 1973 1973 1972 1971 1970 1970 1969 1969 1969 1967 1966 1966 1966 1965 1965 1964 1964 1964 1964 1964 1964 1964 1964 1964 1964 1964 1963 1963 1962 1961 1960 1960 1960 1959 1958 1958 1958 1958 1957 1957 1957 1957 1956 1955 1955 1954 1953 1952 1951 1950 1949 1949 1948 1948 1948 1948 1947 1947 1947 1946 1946 1946 1945 1945 1944 1943 1942 1942 1940 1939 1939 1938 1938 1937 1937 1936 1936 1935 1934 1934 1933 1933 1932 1932 1931 1931 1931 1931 1931 1930 1930 1930 1930 1930 1930 1930 1929 1929 1928 1927 1927 1926 1925 1924 1923 1922 1920 1920 1919 1918 1917 1917 1916 1915 1915 1915 1915 1915 1914 1914 1914 1914 1914 1914 1914 1914 1913 1913 1913 1913 1913 1913 1913 1912 1912 1912 1911 1911 1910 1910 1909 1908 1907 1906 1905 1904 1902 1901 1900 1899 1899 1897 1896 1895 1893 1893 1893 1892 1892 1891 1891 1890 1890 1890 1890 1890 1891 1891 1891 1891 1891 1891 1891 1891 1891 1891 1891 1891 1891 1891 1891 1891 1891 1891 1891 1891 1890 1890 1889 1889 1887 1886 1885 1883 1881 1880 1878 1877 1875 1874 1873 1873 1872 1872 1872 1872 1872 1871 1870 1870 1870 1870 1870 1870 1869 1869 1868 1868 1867 1867 1866 1865 1865 1865 1864 1863 1863 1862 1860 1860 1859 1857 1857 1856 1856 1855 1855 1854 1854 1854 1854 1858 1862 1867 1894 2012 2145 2255 2307 2307 2307 2307 2306 2305 2305 2304 2303 2303 2303 2301 2301 2299 2299 2298 2296 2295 2294 2293 2292 2289 2288 2287 2286 2285 2284 2282 2281 2281 2280 2278 2277 2276 2275 2273 2271 2270 2269 2267 2264 2262 2258 2248 2234 2212 2182 2162 2153 2097 2075 2075 2075 2080 2082 2082 2082 2080 2079 2079 2079 2080 2080 2083 2084 2084 2084 2084 2084 2087 2090 2096 2101 2173 2214 2225 2228 2232 2232 2232 2231 2231 2231 2232 2232 2232 2231 2229 2228 2226 2225 2223 2222 2222 2222 2222 2222 2222 2222 2222 2222 2222 2222 2222 2221 2221 2220 2220 2219 2219 2219 2218 2218 2216 2214
2088 2091 2092 2094 2096 2096 2096 2098 2098 2098 2098 2098 2097 2092 2089 2087 2087 2087 2087 2087 2087 2084 2078 2075 2074 2074 2074 2074 2073 2073 2071 2069 2065 2063 2058 2055 2052 2049 2047 2046 2044 2043 2041 2040 2038 2037 2035 2035 2034 2033 2033 2032 2032 2032 2034 2034 2034 2034 2032 2032 2030 2030 2032 2032 2029 2027 2017 2017 2017 2013 2012 1982 1938 1933 1933 1933 1975 2058 2187 2187 2187 0 0 0 0 0 2458 2485 2520 2554 2589 2591 2594 2605 2623 2647 2658 2678 2717 2861 3049 3171 3213 3219 3221 3223 3223 3223 3223 3223 3222 3220 3220 3218 3216 3214 3212 3208 3207 3205 3203 3202 3200 3199 3197 3195 3194 3191 3189 3187 3184 3182 3180 3178 3177 3176 3175 3174 3174 3172 3171 3168 3167 3166 3164 3162 3160 3159 3158 3156 3154 3153 3150 3148 3147 3144 3143 3142 3140 3138 3136 3134 3132 3130 3127 3126 3124 3123 3121 3119 3118 3116 3114 3113 3111 3110 3108 3106 3104 3103 3101 3098 3095 3092 3090 3088 3086 3086 3084 3083 3079 3073 3066 3061 3054 3043 3024 2997 2958 2836 2603 2315 2095 2009 1996 1996 1996 1996 1996 1994 1993 1993 1993 1993 1992 1992 1990 1990 1990 1988 1988 1986 1986 1985 1984 1983 1982 1981 1980 1980 1979 1979 1978 1977 1976 1976 1975 1975 1975 1975 1975 1975 1975 1974 1973 1972 1971 1971 1970 1969 1969 1969 1967 1966 1966 1966 1965 1964 1964 1964 1964 1964 1964 1964 1965 1965 1965 1964 1964 1964 1963 1963 1961 1961 1960 1960 1959 1958 1957 1957 1957 1957 1957 1956 1956 1956 1955 1955 1954 1953 1951 1951 1950 1949 1949 1949 1948 1948 1948 1948 1948 1947 1947 1946 1946 1946 1945 1944 1943 1942 1941 1940 1938 1937 1937 1936 1936 1936 1936 1935 1934 1934 1933 1932 1930 1929 1929 1929 1930 1930 1930 1930 1930 1930 1930 1930 1930 1930 1930 1930 1929 1928 1927 1927 1926 1926 1925 1924 1923 1921 1920 1919 1918 1917 1917 1916 1915 1915 1914 1914 1914 1914 1914 1913 1913 1913 1913 1912 1913 1913 1913 1913 1913 1913 1913 1913 1912 1912 1912 1911 1911 1911 1910 1909 1908 1907 1906 1905 1904 1903 1901 1901 1899 1899 1897 1895 1895 1893 1891 1891 1891 1890 1890 1890 1890 1889 1889 1889 1889 1890 1890 1891 1891 1891 1891 1891 1891 1891 1891 1891 1891 1891 1891 1891 1891 1891 1891 1891 1891 1890 1890 1889 1889 1888 1886 1885 1883 1882 1880 1878 1877 1875 1875 1874 1873 1873 1873 1872 1872 1872 1871 1871 1871 1871 1870 1870 1870 1869 1869 1868 1868 1867 1867 1866 1865 1865 1865 1864 1863 1863 1862 1861 1860 1859 1859 1858 1857 1856 1856 1855 1855 1855 1855 1855 1858 1860 1867 1894 2012 2163 2263 2307 2307 2308 2307 2307 2307 2307 2305 2304 2303 2303 2302 2301 2300 2299 2298 2297 2295 2295 2293 2292 2290 2288 2288 2287 2285 2284 2283 2282 2281 2280 2278 2278 2276 2275 2274 2272 2270 2269 2268 2267 2263 2257 2246 2231 2210 2182 2162 2153 2095 2074 2074 2074 2080 2084 2084 2084 2081 2081 2081 2081 2081 2082 2082 2082 2082 2082 2082 2083 2087 2090 2098 2101 2177 2215 2226 2230 2232 2232 2232 2232 2232 2232 2232 2232 2232 2231 2229 2228 2226 2225 2224 2223 2223 2223 2223 2222 2222 2223 2223 2223 2223 2223 2223 2222 2221 2220 2220 2219 2219 2219 2218 2218 2215 2214
2087 2091 2091 2095 2096 2098 2098 2100 2101 2104 2104 2104 2100 2096 2093 2091 2090 2090 2089 2089 2088 2084 2079 2075 2075 2074 2074 2074 2074 2074 2071 2069 2066 2064 2059 2056 2052 2049 2047 2046 2045 2044 2042 2040 2038 2037 2035 2035 2034 2034 2034 2034 2034 2034 2034 2034 2034 2034 2032 2032 2030 2030 2032 2032 2031 2031 2017 2017 2017 2013 2012 1982 1949 1946 1946 1946 1979 2042 2144 2144 2144 0 0 0 0 0 2458 2488 2524 2555 2589 2591 2594 2605 2623 2647 2658 2680 2713 2859 3034 3171 3211 3219 3221 3224 3224 3224 3224 3224 3222 3221 3220 3218 3215 3214 3212 3210 3208 3207 3206 3204 3202 3201 3197 3197 3195 3193 3191 3188 3185 3184 3180 3179 3178 3177 3177 3176 3174 3172 3171 3169 3168 3167 3166 3163 3162 3161 3159 3158 3155 3153 3151 3149 3148 3146 3144 3143 3141 3139 3137 3135 3134 3132 3130 3128 3126 3123 3122 3121 3119 3117 3115 3114 3112 3111 3109 3106 3105 3104 3102 3099 3097 3095 3092 3089 3087 3086 3084 3083 3079 3077 3073 3065 3055 3044 3029 3002 2960 2840 2618 2337 2128 2015 1997 1996 1996 1995 1995 1994 1994 1993 1993 1993 1993 1992 1991 1990 1990 1989 1988 1986 1986 1985 1984 1983 1982 1981 1980 1980 1980 1979 1979 1977 1977 1977 1977 1976 1976 1976 1976 1976 1976 1975 1973 1972 1972 1971 1971 1970 1969 1969 1967 1966 1966 1966 1965 1965 1965 1965 1965 1965 1965 1965 1965 1965 1965 1965 1965 1964 1964 1963 1963 1961 1961 1960 1959 1958 1957 1957 1957 1957 1955 1955 1954 1954 1954 1954 1953 1952 1951 1951 1949 1948 1948 1948 1949 1949 1949 1948 1948 1947 1947 1947 1947 1946 1945 1944 1943 1942 1940 1938 1936 1934 1933 1932 1932 1932 1932 1931 1931 1929 1928 1927 1925 1925 1925 1926 1928 1928 1928 1929 1929 1929 1929 1930 1930 1930 1930 1930 1930 1929 1928 1927 1926 1926 1925 1924 1923 1921 1920 1920 1919 1917 1916 1915 1914 1913 1913 1912 1912 1912 1912 1912 1912 1912 1912 1912 1912 1913 1913 1913 1913 1913 1913 1913 1913 1912 1912 1912 1911 1911 1910 1910 1908 1908 1907 1905 1904 1903 1902 1901 1900 1899 1897 1895 1894 1893 1891 1890 1890 1890 1890 1889 1889 1889 1889 1889 1889 1889 1889 1890 1890 1890 1890 1890 1891 1892 1892 1892 1892 1892 1891 1891 1891 1891 1891 1891 1891 1890 1890 1889 1889 1888 1886 1885 1884 1882 1880 1879 1877 1876 1875 1875 1874 1874 1873 1873 1873 1872 1872 1872 1871 1871 1871 1871 1870 1870 1869 1868 1868 1867 1867 1866 1865 1865 1865 1864 1863 1863 1863 1862 1861 1860 1859 1858 1858 1857 1856 1856 1856 1856 1856 1857 1858 1860 1865 1895 2022 2185 2273 2307 2307 2308 2308 2307 2307 2307 2305 2304 2304 2303 2303 2301 2301 2299 2299 2297 2296 2295 2293 2292 2290 2289 2288 2287 2285 2284 2283 2282 2281 2279 2278 2278 2277 2275 2274 2272 2271 2270 2268 2268 2263 2257 2244 2227 2202 2182 2161 2097 2091 2074 2074 2074 2080 2084 2084 2084 2082 2081 2081 2081 2082 2083 2083 2083 2082 2082 2082 2083 2087 2091 2098 2101 2177 2215 2227 2233 2233 2233 2233 2233 2233 2233 2233 2233 2232 2231 2229 2228 2227 2225 2225 2224 2223 2223 2223 2223 2223 2223 2223 2223 2223 2223 2223 2223 2221 2221 2220 2219 2219 2219 2218 2216 2214 2214
2083 2088 2091 2095 2096 2098 2101 2103 2106 2112 2112 2112 2104 2101 2098 2096 2096 2092 2091 2090 2088 2084 2080 2076 2075 2075 2075 2075 2075 2074 2072 2069 2066 2064 2060 2057 2054 2051 2050 2047 2046 2044 2042 2040 2038 2037 2035 2035 2034 2034 2034 2034 2034 2034 2034 2034 2034 2034 2032 2032 2032 2032 2035 2035 2035 2031 2023 2021 2021 2013 2012 1985 1958 1949 1949 1949 1979 2040 2130 2130 2130 0 0 0 0 0 2458 2493 2528 2557 2589 2591 2591 2605 2623 2647 2658 2680 2709 2858 3018 3150 3206 3219 3221 3225 3225 3225 3225 3224 3222 3221 3220 3218 3216 3214 3212 3211 3211 3210 3208 3206 3203 3202 3199 3198 3195 3194 3191 3189 3188 3186 3184 3181 3180 3179 3178 3176 3175 3174 3172 3170 3168 3168 3167 3166 3163 3162 3161 3158 3157 3153 3151 3150 3149 3147 3146 3144 3143 3140 3140 3137 3136 3134 3131 3129 3127 3126 3124 3122 3119 3118 3116 3115 3113 3111 3110 3108 3105 3104 3103 3101 3098 3095 3093 3090 3088 3086 3084 3083 3079 3077 3074 3065 3057 3050 3036 3014 2968 2840 2632 2368 2135 2021 2003 2000 1996 1996 1995 1995 1994 1994 1994 1993 1993 1992 1991 1991 1990 1989 1988 1987 1986 1986 1985 1983 1982 1982 1981 1981 1981 1980 1979 1979 1978 1978 1978 1978 1978 1978 1977 1976 1976 1976 1975 1974 1974 1974 1971 1970 1969 1969 1967 1966 1966 1966 1965 1965 1965 1965 1966 1966 1966 1966 1966 1966 1966 1965 1965 1965 1964 1964 1964 1964 1961 1961 1959 1958 1958 1957 1957 1957 1955 1954 1954 1954 1953 1953 1952 1951 1950 1948 1948 1948 1948 1948 1948 1948 1948 1948 1948 1948 1948 1947 1947 1946 1945 1944 1943 1942 1940 1938 1936 1934 1932 1930 1930 1930 1929 1929 1929 1927 1925 1922 1922 1922 1925 1926 1926 1927 1927 1927 1928 1928 1929 1930 1930 1930 1930 1930 1930 1930 1929 1928 1927 1927 1926 1924 1923 1922 1920 1920 1919 1917 1916 1915 1913 1912 1910 1910 1910 1910 1910 1910 1911 1911 1911 1911 1911 1911 1911 1912 1912 1912 1912 1912 1912 1912 1912 1912 1911 1911 1911 1910 1909 1908 1907 1907 1905 1904 1903 1901 1901 1899 1898 1896 1892 1890 1890 1890 1889 1888 1888 1887 1887 1887 1887 1887 1887 1887 1888 1890 1890 1890 1890 1890 1891 1892 1892 1892 1892 1892 1892 1892 1892 1892 1892 1892 1892 1891 1890 1889 1889 1888 1887 1885 1884 1882 1880 1879 1878 1876 1876 1875 1874 1874 1874 1874 1873 1873 1872 1872 1871 1871 1871 1871 1871 1870 1869 1869 1868 1868 1867 1866 1866 1866 1865 1864 1864 1863 1863 1862 1861 1861 1860 1859 1858 1858 1858 1856 1856 1857 1857 1857 1860 1861 1867 1896 2022 2185 2303 2307 2307 2308 2308 2307 2307 2307 2306 2306 2305 2305 2304 2303 2303 2302 2300 2298 2297 2296 2294 2293 2291 2290 2288 2287 2286 2284 2283 2282 2281 2279 2279 2278 2277 2276 2274 2272 2272 2271 2268 2268 2263 2257 2244 2224 2199 2180 2128 2081 2077 2069 2069 2069 2079 2084 2084 2084 2083 2082 2082 2082 2082 2083 2083 2083 2082 2082 2082 2083 2088 2093 2101 2104 2177 2215 2228 2234 2234 2234 2234 2234 2234 2234 2234 2233 2232 2230 2229 2228 2227 2226 2225 2224 2224 2224 2224 2223 2223 2223 2223 2223 2223 2223 2223 2223 2221 2221 2220 2219 2219 2219 2218 2216 2214 2214
2083 2087 2089 2094 2098 2103 2103 2107 2113 2117 2117 2117 2110 2106 2100 2098 2097 2093 2091 2090 2088 2084 2080 2077 2077 2077 2077 2076 2076 2074 2072 2069 2066 2064 2061 2057 2055 2052 2050 2047 2046 2044 2042 2040 2038 2036 2035 2035 2034 2034 2034 2034 2034 2034 2034 2034 2034 2033 2034 2034 2034 2040 2040 2040 2037 2031 2030 2029 2021 2015 2005 1987 1963 1949 1949 1949 1979 2038 2040 2040 2040 0 0 0 0 0 2455 2478 2528 2557 2584 2584 2586 2597 2618 2635 2652 2680 2709 2852 3018 3149 3206 3221 3226 3227 3227 3227 3227 3224 3222 3221 3221 3218 3216 3215 3215 3212 3212 3210 3209 3207 3205 3204 3201 3198 3195 3194 3191 3189 3188 3186 3185 3183 3182 3180 3180 3178 3176 3174 3172 3172 3170 3169 3168 3166 3165 3163 3162 3159 3157 3153 3152 3150 3149 3147 3147 3145 3144 3143 3141 3139 3137 3134 3133 3130 3128 3126 3125 3123 3120 3119 3117 3116 3114 3113 3111 3108 3106 3104 3103 3101 3098 3096 3093 3091 3089 3086 3083 3082 3081 3077 3074 3066 3060 3053 3038 3017 2978 2840 2640 2369 2136 2021 2003 2000 1996 1996 1996 1996 1996 1995 1994 1994 1993 1993 1992 1991 1991 1990 1989 1988 1987 1986 1985 1984 1983 1983 1982 1981 1981 1981 1981 1981 1980 1980 1980 1980 1979 1979 1978 1978 1978 1977 1976 1975 1974 1974 1971 1970 1969 1969 1967 1967 1967 1966 1966 1966 1966 1966 1966 1966 1966 1966 1966 1966 1966 1966 1966 1966 1965 1965 1965 1964 1964 1963 1960 1958 1958 1957 1957 1957 1955 1954 1953 1953 1953 1952 1951 1951 1950 1948 1948 1948 1948 1948 1948 1948 1948 1948 1948 1948 1948 1947 1947 1946 1945 1944 1943 1942 1940 1938 1936 1933 1931 1929 1928 1927 1924 1922 1922 1922 1920 1919 1919 1919 1920 1921 1923 1923 1925 1925 1926 1928 1929 1930 1930 1931 1931 1931 1930 1930 1929 1928 1927 1927 1926 1925 1924 1923 1921 1920 1919 1917 1915 1914 1912 1911 1910 1910 1909 1909 1909 1909 1909 1909 1909 1909 1909 1909 1910 1911 1912 1912 1912 1912 1912 1912 1912 1912 1911 1911 1911 1910 1909 1909 1907 1907 1906 1905 1904 1902 1901 1900 1898 1896 1892 1890 1889 1887 1886 1886 1885 1885 1884 1884 1884 1884 1885 1886 1888 1889 1889 1890 1890 1890 1892 1892 1893 1893 1893 1893 1893 1893 1893 1893 1893 1893 1892 1892 1891 1890 1889 1888 1887 1885 1884 1882 1880 1879 1878 1877 1876 1876 1875 1875 1874 1874 1873 1873 1873 1873 1873 1872 1872 1871 1871 1870 1869 1869 1869 1868 1868 1867 1866 1866 1865 1864 1864 1863 1863 1862 1861 1861 1860 1859 1859 1858 1858 1857 1857 1858 1860 1860 1860 1862 1868 1903 2069 2185 2305 2305 2305 2303 2303 2303 2307 2307 2307 2307 2307 2306 2306 2304 2304 2303 2301 2299 2297 2296 2295 2294 2292 2291 2289 2287 2286 2284 2283 2282 2281 2279 2279 2278 2277 2276 2274 2272 2272 2271 2268 2268 2263 2260 2244 2223 2199 2178 2128 2081 2077 2069 2069 2069 2076 2083 2083 2083 2083 2083 2082 2082 2082 2083 2083 2083 2083 2083 2083 2083 2089 2098 2104 2170 2178 2216 2228 2235 2235 2235 2235 2235 2235 2235 2235 2233 2232 2230 2229 2228 2227 2226 2225 2224 2224 2224 2224 2224 2223 2223 2223 2223 2224 2224 2224 2223 2222 2221 2220 2219 2219 2218 2218 2216 2214 2214
2083 2085 2088 2094 2100 2104 2107 2112 2119 2123 2123 2123 2115 2109 2104 2100 2099 2093 2092 2091 2087 2083 2080 2079 2079 2079 2079 2078 2077 2075 2072 2071 2070 2066 2063 2059 2057 2053 2050 2048 2046 2043 2041 2039 2038 2037 2036 2035 2035 2034 2034 2034 2034 2034 2034 2034 2034 2033 2034 2034 2034 2040 2040 2040 2037 2031 2030 2029 2021 2015 1995 1985 1963 1949 1949 1949 1971 2037 2040 2040 2040 0 0 0 0 0 2455 2478 2528 2557 2567 2580 2584 2589 2602 2621 2644 2669 2708 2849 3018 3149 3206 3231 3231 3232 3232 3231 3227 3224 3223 3222 3221 3219 3217 3216 3216 3214 3212 3211 3209 3208 3206 3204 3202 3198 3195 3194 3191 3190 3188 3187 3186 3185 3183 3181 3180 3178 3177 3175 3174 3173 3172 3171 3170 3167 3165 3164 3162 3161 3158 3156 3153 3151 3150 3148 3148 3147 3146 3144 3141 3139 3137 3135 3133 3130 3128 3127 3125 3123 3121 3120 3118 3117 3115 3115 3112 3110 3106 3105 3103 3101 3098 3096 3093 3091 3089 3087 3083 3082 3081 3079 3075 3066 3062 3054 3039 3017 2983 2840 2644 2369 2136 2021 2003 2000 1996 1996 1996 1996 1996 1996 1995 1994 1993 1993 1992 1991 1991 1990 1989 1988 1988 1986 1986 1985 1985 1984 1983 1982 1981 1981 1981 1981 1982 1982 1981 1981 1981 1980 1980 1980 1979 1979 1978 1975 1975 1975 1973 1971 1970 1970 1967 1967 1967 1967 1967 1967 1967 1967 1967 1967 1967 1967 1967 1967 1966 1966 1966 1966 1966 1965 1965 1965 1964 1964 1960 1959 1958 1958 1958 1957 1955 1954 1953 1953 1953 1952 1951 1951 1949 1948 1948 1948 1948 1948 1948 1948 1949 1949 1948 1948 1948 1948 1947 1947 1946 1945 1943 1942 1940 1938 1935 1932 1929 1929 1928 1925 1923 1922 1922 1921 1919 1918 1918 1918 1920 1921 1921 1923 1923 1923 1926 1928 1929 1930 1931 1931 1931 1931 1931 1930 1929 1929 1928 1927 1926 1925 1924 1923 1921 1920 1919 1917 1914 1913 1912 1911 1910 1909 1908 1908 1908 1908 1908 1908 1908 1908 1908 1909 1910 1910 1911 1912 1912 1912 1912 1912 1912 1912 1912 1912 1911 1910 1910 1909 1908 1907 1907 1905 1904 1903 1901 1900 1900 1899 1892 1890 1889 1887 1886 1886 1885 1885 1883 1883 1883 1883 1885 1886 1887 1888 1889 1889 1890 1891 1892 1892 1893 1893 1894 1894 1894 1894 1894 1893 1893 1893 1893 1892 1891 1891 1889 1889 1887 1886 1884 1883 1881 1879 1878 1878 1877 1876 1875 1875 1875 1875 1875 1874 1874 1873 1873 1873 1873 1872 1871 1870 1870 1869 1869 1868 1868 1867 1867 1866 1865 1864 1864 1864 1863 1862 1861 1861 1860 1860 1860 1858 1858 1858 1858 1858 1860 1864 1866 1867 1869 1907 2073 2178 2305 2305 2305 2303 2303 2303 2306 2307 2307 2307 2307 2307 2307 2306 2305 2303 2302 2301 2299 2297 2296 2295 2294 2292 2289 2287 2286 2284 2283 2282 2281 2280 2279 2278 2277 2276 2274 2272 2272 2270 2267 2265 2264 2260 2245 2223 2199 2178 2128 2081 2077 2069 2069 2069 2076 2083 2083 2083 2083 2083 2082 2082 2082 2082 2083 2083 2083 2084 2084 2086 2091 2098 2109 2172 2179 2217 2235 2237 2237 2237 2236 2236 2236 2236 2235 2233 2232 2230 2229 2228 2227 2226 2225 2224 2224 2224 2224 2224 2223 2223 2223 2223 2224 2224 2224 2223 2222 2221 2221 2219 2219 2218 2217 2216 2215 2215
2085 2085 2088 2095 2100 2107 2112 2118 2123 2126 2126 2126 2118 2111 2104 2100 2099 2094 2092 2091 2087 2082 2080 2080 2079 2079 2079 2079 2078 2075 2074 2073 2071 2068 2065 2062 2058 2055 2050 2048 2045 2043 2041 2039 2038 2037 2036 2036 2036 2035 2035 2034 2034 2034 2034 2034 2034 2034 2034 2034 2034 2040 2040 2040 2037 2032 2031 2030 2015 2004 1986 1985 1963 1945 1945 1945 1961 2016 2018 2018 2018 0 0 0 0 0 2434 2470 2525 2557 2567 2574 2576 2582 2599 2615 2636 2665 2696 2849 3023 3150 3208 3233 3233 3233 3233 3232 3227 3224 3223 3222 3222 3220 3219 3218 3217 3215 3213 3212 3209 3209 3207 3205 3202 3199 3196 3194 3191 3190 3188 3188 3187 3186 3183 3181 3180 3178 3177 3175 3174 3174 3173 3173 3171 3168 3166 3165 3163 3161 3160 3157 3155 3152 3151 3150 3149 3147 3146 3144 3142 3140 3138 3136 3133 3131 3129 3128 3125 3123 3122 3120 3118 3118 3118 3117 3114 3111 3108 3106 3104 3102 3098 3096 3093 3091 3089 3087 3083 3082 3081 3080 3076 3068 3062 3054 3039 3019 2983 2840 2669 2371 2137 2022 2001 1997 1997 1997 1998 1998 1998 1996 1995 1994 1994 1993 1993 1993 1992 1991 1990 1989 1989 1988 1987 1986 1985 1984 1983 1983 1983 1983 1983 1982 1982 1982 1983 1983 1983 1983 1983 1982 1981 1981 1979 1978 1977 1976 1975 1972 1971 1971 1969 1969 1969 1967 1967 1967 1967 1967 1967 1968 1968 1968 1968 1967 1967 1967 1967 1966 1966 1966 1966 1965 1964 1964 1961 1959 1958 1958 1958 1957 1955 1954 1953 1953 1952 1952 1951 1950 1949 1948 1948 1948 1948 1948 1948 1949 1949 1949 1949 1949 1949 1948 1948 1947 1946 1945 1944 1942 1940 1938 1936 1931 1928 1927 1926 1925 1923 1922 1922 1921 1919 1918 1918 1918 1919 1920 1921 1921 1922 1923 1926 1928 1929 1930 1931 1931 1931 1931 1931 1930 1930 1929 1928 1927 1926 1925 1924 1923 1922 1920 1919 1917 1914 1913 1912 1911 1910 1908 1908 1908 1908 1908 1908 1908 1908 1908 1908 1909 1910 1910 1911 1912 1912 1912 1912 1912 1912 1912 1912 1912 1911 1911 1910 1909 1908 1908 1907 1906 1904 1904 1902 1901 1901 1899 1893 1891 1889 1887 1886 1886 1885 1884 1883 1882 1882 1882 1884 1885 1886 1888 1889 1889 1890 1892 1893 1893 1893 1894 1894 1894 1894 1894 1894 1894 1894 1894 1893 1892 1892 1891 1889 1889 1888 1886 1885 1883 1881 1880 1879 1878 1877 1876 1876 1876 1875 1875 1875 1875 1875 1874 1874 1873 1873 1872 1872 1871 1870 1870 1870 1869 1868 1868 1867 1866 1866 1865 1864 1864 1863 1862 1862 1861 1860 1860 1860 1860 1859 1859 1859 1859 1860 1864 1868 1869 1871 1907 2081 2178 2303 2303 2303 2303 2303 2303 2306 2307 2307 2309 2309 2309 2308 2307 2306 2304 2302 2301 2299 2297 2296 2295 2294 2292 2290 2287 2286 2285 2283 2283 2281 2281 2279 2278 2277 2276 2275 2273 2272 2270 2267 2265 2264 2260 2246 2223 2198 2178 2128 2082 2074 2069 2069 2069 2076 2083 2083 2083 2083 2083 2082 2082 2082 2082 2083 2083 2083 2086 2086 2087 2093 2103 2114 2178 2184 2221 2235 2237 2237 2237 2237 2237 2236 2236 2235 2233 2232 2230 2229 2228 2227 2225 2225 2224 2224 2224 2224 2224 2223 2223 2223 2223 2224 2224 2224 2223 2222 2221 2220 2220 2219 2218 2218 2218 2217 2216
2088 2088 2088 2095 2101 2109 2118 2122 2126 2128 2128 2128 2119 2112 2104 2100 2099 2094 2092 2091 2085 2081 2080 2080 2079 2079 2079 2079 2078 2076 2074 2074 2072 2071 2067 2064 2060 2055 2050 2048 2045 2043 2041 2039 2038 2038 2038 2037 2037 2037 2036 2035 2035 2034 2034 2034 2034 2034 2034 2034 2034 2039 2039 2039 2037 2032 2031 2022 2007 1996 1987 1986 1959 1945 1945 1945 1961 2001 2018 2018 0 0 0 0 0 0 2425 2455 2525 2559 2567 2574 2576 2582 2599 2615 2636 2663 2696 2828 3023 3150 3219 3233 3233 3233 3233 3232 3227 3223 3223 3223 3222 3221 3219 3219 3217 3215 3214 3212 3210 3209 3208 3205 3203 3199 3197 3194 3191 3190 3188 3188 3187 3186 3185 3182 3181 3180 3179 3176 3175 3174 3173 3173 3171 3169 3168 3166 3163 3162 3161 3160 3157 3155 3153 3151 3150 3147 3146 3145 3143 3141 3139 3136 3134 3131 3129 3128 3126 3124 3122 3121 3119 3119 3119 3118 3116 3113 3109 3107 3104 3102 3098 3096 3093 3091 3089 3087 3084 3083 3081 3079 3076 3072 3066 3056 3042 3021 2993 2863 2679 2371 2138 2022 2001 1997 1997 1997 1998 1998 1998 1996 1995 1994 1994 1994 1994 1993 1993 1992 1991 1990 1989 1989 1988 1987 1986 1985 1984 1983 1983 1983 1983 1983 1984 1984 1984 1985 1986 1986 1986 1985 1984 1983 1982 1980 1978 1977 1975 1973 1973 1973 1971 1970 1969 1969 1968 1968 1968 1968 1968 1968 1968 1968 1968 1967 1967 1967 1967 1967 1967 1966 1966 1965 1964 1964 1961 1959 1958 1958 1958 1957 1955 1953 1953 1953 1952 1951 1950 1948 1948 1948 1948 1948 1948 1948 1948 1949 1949 1949 1949 1949 1949 1949 1948 1948 1947 1946 1944 1942 1940 1938 1936 1931 1928 1927 1926 1925 1923 1922 1921 1920 1919 1918 1918 1918 1919 1920 1921 1921 1922 1923 1926 1928 1929 1931 1931 1931 1931 1931 1931 1931 1930 1930 1929 1928 1926 1926 1924 1923 1922 1920 1919 1916 1914 1912 1911 1909 1908 1908 1908 1908 1907 1907 1907 1907 1907 1908 1908 1909 1910 1910 1911 1912 1913 1913 1913 1913 1913 1912 1912 1912 1912 1911 1911 1909 1909 1908 1907 1907 1906 1905 1903 1902 1901 1899 1893 1892 1889 1887 1886 1885 1884 1883 1882 1881 1881 1881 1882 1884 1886 1886 1888 1889 1890 1892 1893 1893 1894 1895 1895 1895 1895 1895 1895 1895 1895 1894 1893 1893 1892 1891 1890 1889 1888 1886 1885 1883 1882 1880 1879 1878 1877 1877 1877 1877 1876 1876 1876 1876 1876 1875 1875 1874 1874 1873 1872 1872 1871 1870 1870 1869 1869 1868 1868 1867 1866 1865 1864 1864 1863 1862 1862 1861 1861 1860 1860 1860 1860 1859 1859 1859 1859 1864 1868 1869 1875 1937 2111 2178 2293 2303 2304 2305 2305 2305 2306 2308 2309 2309 2309 2309 2308 2307 2306 2304 2303 2301 2299 2298 2296 2296 2294 2293 2290 2288 2287 2285 2283 2283 2282 2281 2279 2278 2277 2276 2275 2273 2273 2270 2267 2265 2264 2263 2248 2225 2197 2178 2128 2082 2073 2069 2069 2069 2083 2083 2083 2083 2083 2082 2082 2082 2082 2082 2083 2083 2085 2086 2086 2087 2094 2107 2121 2186 2191 2224 2235 2237 2237 2237 2237 2237 2236 2236 2235 2234 2233 2231 2230 2228 2227 2226 2225 2224 2224 2224 2224 2224 2223 2223 2223 2224 2224 2224 2223 2223 2222 2221 2221 2220 2220 2219 2219 2218 2218 2217
2094 2094 2094 2097 2104 2112 2119 2124 2126 2128 2128 2128 2119 2112 2104 2098 2094 2094 2091 2088 2083 2080 2080 2080 2080 2080 2080 2080 2080 2076 2075 2074 2073 2072 2068 2066 2060 2055 2050 2048 2045 2043 2041 2040 2039 2039 2038 2038 2038 2038 2038 2036 2036 2036 2036 2036 2036 2036 2035 2035 2035 2037 2041 2041 2041 2039 2031 2022 2007 1996 1987 1986 1959 1945 1945 1945 1961 2000 2018 2018 2018 0 0 0 0 0 2425 2455 2525 2574 2575 2575 2576 2582 2599 2615 2636 2663 2696 2828 3025 3150 3220 3233 3233 3233 3232 3228 3225 3223 3223 3223 3223 3222 3220 3219 3218 3216 3216 3214 3213 3211 3208 3208 3205 3200 3198 3196 3193 3191 3191 3190 3189 3187 3185 3183 3182 3180 3179 3178 3176 3175 3175 3173 3172 3171 3169 3168 3166 3165 3164 3161 3159 3157 3155 3153 3150 3148 3146 3145 3143 3142 3141 3138 3135 3132 3130 3129 3127 3124 3123 3122 3121 3120 3120 3118 3117 3114 3111 3108 3105 3102 3098 3096 3094 3092 3089 3087 3085 3083 3081 3080 3076 3072 3066 3059 3047 3024 2995 2872 2679 2384 2140 2022 2001 1999 1999 1999 1999 1999 1999 1997 1996 1996 1995 1995 1994 1994 1993 1993 1991 1991 1990 1990 1988 1987 1987 1986 1985 1984 1984 1984 1984 1984 1985 1985 1985 1986 1988 1988 1988 1988 1987 1985 1984 1982 1980 1979 1977 1975 1975 1975 1972 1971 1970 1970 1970 1969 1969 1969 1969 1969 1969 1969 1969 1968 1968 1968 1968 1967 1967 1966 1966 1965 1964 1964 1962 1961 1959 1957 1956 1955 1955 1954 1953 1952 1952 1950 1949 1949 1949 1949 1949 1949 1949 1949 1949 1949 1950 1950 1950 1950 1950 1950 1949 1949 1947 1946 1945 1943 1941 1939 1936 1931 1928 1927 1926 1924 1923 1922 1921 1920 1919 1918 1918 1918 1919 1920 1921 1921 1922 1923 1926 1928 1929 1931 1931 1931 1931 1931 1931 1931 1930 1930 1929 1928 1927 1926 1925 1923 1922 1920 1919 1916 1912 1912 1910 1909 1908 1907 1907 1907 1907 1907 1907 1907 1907 1908 1908 1909 1910 1911 1912 1913 1913 1913 1913 1913 1913 1913 1913 1913 1912 1911 1911 1911 1909 1909 1908 1907 1906 1906 1903 1902 1901 1898 1895 1892 1889 1887 1886 1885 1884 1883 1881 1881 1881 1881 1882 1883 1885 1886 1888 1889 1890 1892 1893 1893 1894 1895 1895 1895 1896 1895 1895 1895 1895 1894 1894 1893 1893 1891 1890 1889 1888 1887 1886 1883 1882 1881 1881 1878 1877 1877 1877 1877 1877 1877 1877 1876 1876 1875 1875 1875 1874 1873 1873 1872 1872 1872 1871 1869 1869 1868 1868 1867 1866 1865 1864 1864 1863 1862 1862 1861 1861 1861 1860 1860 1860 1860 1860 1860 1860 1864 1868 1869 1875 1937 2113 2194 2293 2305 2305 2307 2306 2308 2308 2308 2310 2310 2310 2309 2308 2308 2306 2304 2303 2301 2299 2298 2297 2296 2294 2293 2291 2289 2287 2286 2285 2283 2282 2281 2280 2279 2278 2276 2275 2273 2273 2270 2267 2265 2265 2263 2254 2229 2197 2178 2120 2085 2072 2070 2070 2070 2083 2083 2083 2083 2082 2082 2082 2082 2082 2083 2084 2085 2086 2086 2087 2087 2096 2114 2128 2193 2197 2226 2235 2236 2236 2236 2236 2236 2236 2236 2235 2234 2233 2231 2230 2228 2227 2226 2225 2224 2224 2224 2224 2224 2224 2224 2224 2224 2224 2224 2223 2223 2222 2221 2221 2220 2220 2219 2219 2219 2218 2217
2102 2102 2102 2102 2107 2115 2121 2124 2126 2128 2128 2128 2118 2112 2102 2097 2092 2090 2089 2087 2083 2080 2080 2080 2080 2080 2081 2081 2081 2079 2077 2077 2074 2074 2072 2067 2061 2055 2052 2050 2048 2044 2042 2040 2039 2039 2039 2039 2038 2038 2038 2038 2038 2037 2037 2037 2037 2037 2037 2037 2037 2037 2043 2044 2044 2043 2040 2022 2007 1996 1994 1990 1959 1959 1959 1965 1971 1981 2025 2025 2025 0 0 0 0 0 2425 2455 2553 2578 2586 2589 2589 2591 2599 2616 2637 2663 2700 2828 3027 3151 3223 3231 3231 3231 3230 3228 3225 3224 3224 3223 3223 3223 3221 3221 3220 3218 3217 3216 3214 3212 3210 3209 3207 3204 3201 3199 3197 3195 3192 3192 3191 3190 3187 3186 3184 3181 3180 3178 3178 3176 3175 3174 3173 3172 3170 3170 3168 3166 3164 3161 3159 3158 3156 3155 3152 3150 3147 3146 3144 3144 3142 3139 3136 3133 3132 3130 3127 3126 3124 3123 3122 3121 3121 3119 3117 3115 3111 3109 3105 3103 3099 3097 3095 3092 3090 3087 3085 3083 3081 3080 3076 3073 3068 3061 3047 3025 2995 2872 2679 2400 2147 2027 2003 2001 2001 2000 2000 2000 1999 1999 1997 1996 1996 1995 1995 1994 1994 1993 1992 1992 1991 1990 1989 1989 1988 1986 1986 1986 1986 1986 1986 1986 1986 1986 1986 1987 1990 1990 1990 1989 1988 1986 1985 1984 1983 1981 1978 1977 1977 1975 1973 1972 1971 1971 1971 1970 1970 1969 1969 1969 1969 1969 1969 1969 1969 1968 1968 1968 1967 1967 1966 1965 1964 1964 1964 1962 1959 1957 1956 1955 1955 1954 1953 1952 1952 1950 1949 1949 1949 1949 1950 1950 1949 1950 1950 1950 1950 1950 1950 1950 1950 1950 1950 1949 1948 1947 1945 1943 1942 1940 1938 1933 1931 1929 1926 1924 1923 1922 1921 1920 1919 1918 1918 1918 1918 1920 1921 1922 1922 1923 1926 1928 1929 1930 1931 1931 1931 1931 1931 1931 1930 1930 1929 1928 1927 1926 1925 1923 1922 1920 1919 1916 1912 1910 1909 1908 1908 1907 1906 1906 1906 1906 1907 1907 1907 1908 1908 1909 1910 1912 1913 1913 1913 1913 1914 1914 1914 1914 1913 1913 1912 1912 1911 1911 1910 1909 1908 1908 1907 1906 1903 1902 1901 1898 1896 1893 1889 1887 1886 1885 1884 1883 1881 1881 1881 1881 1881 1883 1885 1886 1888 1889 1891 1892 1894 1894 1894 1895 1896 1896 1896 1896 1896 1896 1895 1895 1894 1893 1893 1892 1890 1890 1889 1887 1886 1884 1883 1881 1881 1879 1878 1877 1877 1877 1877 1877 1877 1877 1877 1876 1875 1875 1875 1874 1874 1873 1872 1872 1871 1870 1869 1869 1868 1868 1867 1866 1865 1864 1863 1862 1862 1861 1861 1861 1861 1860 1860 1860 1860 1860 1862 1864 1865 1865 1875 1937 2116 2205 2293 2305 2306 2307 2308 2310 2310 2310 2310 2310 2310 2309 2308 2308 2306 2304 2303 2301 2300 2298 2297 2296 2294 2293 2291 2290 2287 2287 2285 2284 2282 2282 2280 2279 2278 2276 2275 2274 2273 2270 2267 2265 2265 2263 2254 2229 2197 2178 2116 2085 2072 2070 2070 2070 2081 2082 2082 2082 2082 2082 2082 2082 2083 2084 2085 2085 2086 2086 2087 2090 2103 2116 2138 2193 2198 2229 2233 2233 2234 2234 2234 2236 2236 2236 2235 2234 2233 2231 2230 2228 2227 2226 2225 2224 2224 2224 2224 2224 2224 2224 2225 2225 2225 2224 2223 2223 2222 2221 2220 2220 2220 2219 2219 2219 2218 2218
2112 2111 2111 2112 2112 2118 2124 2125 2126 2126 2126 2126 2118 2110 2100 2096 2091 2089 2087 2087 2083 2080 2080 2080 2080 2081 2083 2083 2083 2082 2080 2078 2077 2076 2072 2067 2062 2056 2053 2052 2050 2044 2042 2040 2039 2039 2039 2039 2039 2038 2038 2038 2038 2038 2038 2038 2038 2038 2038 2038 2037 2037 2037 2054 2054 2054 2049 2030 2016 2012 2011 2008 1973 1966 1966 1966 1978 1981 2031 2031 2031 0 0 0 0 0 2418 2480 2573 2596 2597 2601 2605 2607 2612 2628 2658 2684 2715 2836 3027 3167 3225 3231 3231 3231 3230 3228 3225 3225 3225 3224 3224 3224 3223 3222 3220 3220 3218 3217 3215 3213 3212 3210 3209 3206 3203 3201 3199 3197 3196 3194 3192 3191 3189 3188 3186 3183 3181 3180 3178 3177 3177 3176 3175 3172 3171 3170 3169 3167 3165 3161 3160 3158 3157 3155 3153 3151 3150 3147 3145 3144 3142 3140 3137 3135 3132 3131 3128 3127 3125 3123 3123 3121 3121 3120 3117 3115 3111 3109 3107 3104 3101 3098 3095 3092 3090 3087 3085 3083 3081 3080 3076 3073 3068 3063 3048 3025 2993 2863 2659 2400 2147 2027 2005 2001 2001 2001 2001 2000 2000 1999 1998 1997 1997 1996 1996 1995 1994 1994 1993 1993 1991 1991 1991 1989 1988 1987 1987 1987 1987 1987 1987 1987 1987 1987 1988 1988 1991 1991 1991 1991 1990 1989 1987 1987 1985 1984 1980 1979 1978 1977 1973 1973 1972 1972 1972 1971 1971 1970 1970 1970 1970 1970 1970 1969 1969 1968 1968 1968 1967 1967 1966 1965 1965 1964 1964 1963 1960 1957 1956 1955 1955 1954 1953 1952 1952 1950 1949 1949 1949 1950 1950 1950 1951 1951 1950 1951 1951 1951 1951 1951 1951 1951 1951 1950 1949 1947 1945 1944 1943 1940 1938 1935 1932 1929 1926 1924 1922 1920 1920 1919 1919 1918 1918 1918 1918 1920 1921 1922 1922 1923 1927 1928 1929 1930 1930 1931 1931 1931 1931 1931 1931 1930 1929 1928 1927 1926 1925 1922 1921 1920 1919 1915 1912 1910 1909 1908 1907 1906 1906 1906 1906 1906 1906 1907 1907 1908 1908 1909 1910 1913 1913 1914 1914 1914 1914 1914 1914 1914 1914 1914 1913 1912 1912 1911 1910 1910 1909 1908 1908 1906 1904 1902 1902 1898 1897 1894 1890 1888 1887 1885 1884 1883 1881 1881 1881 1881 1881 1883 1885 1886 1888 1889 1891 1892 1894 1894 1895 1896 1896 1896 1896 1896 1896 1896 1896 1895 1894 1894 1893 1892 1890 1890 1889 1888 1886 1884 1883 1882 1881 1880 1879 1878 1878 1878 1878 1878 1878 1878 1877 1876 1875 1875 1875 1875 1874 1873 1873 1872 1871 1871 1870 1870 1869 1868 1867 1866 1865 1864 1863 1862 1862 1861 1861 1861 1861 1860 1860 1860 1860 1862 1862 1864 1865 1865 1875 1937 2116 2242 2307 2307 2308 2308 2308 2310 2310 2311 2311 2311 2310 2310 2309 2308 2306 2306 2303 2302 2301 2298 2298 2296 2295 2293 2292 2290 2289 2287 2286 2284 2283 2282 2281 2280 2278 2276 2275 2274 2273 2270 2268 2267 2266 2259 2254 2229 2197 2175 2114 2082 2071 2070 2070 2070 2081 2081 2081 2081 2081 2081 2082 2082 2083 2084 2085 2085 2085 2086 2086 2090 2104 2116 2154 2197 2228 2229 2233 2233 2234 2234 2234 2235 2235 2235 2234 2233 2232 2232 2230 2228 2227 2226 2225 2225 2224 2224 2224 2224 2224 2225 2225 2225 2225 2224 2223 2223 2222 2221 2220 2220 2219 2219 2219 2219 2218 2218
2119 2117 2116 2116 2116 2119 2124 2126 2126 2126 2126 2121 2114 2104 2098 2096 2091 2089 2087 2087 2084 2082 2081 2081 2081 2081 2083 2083 2083 2082 2080 2078 2077 2076 2072 2067 2062 2057 2054 2052 2050 2044 2042 2040 2040 2040 2040 2040 2040 2039 2039 2039 2039 2039 2039 2039 2039 2040 2040 2039 2040 2040 2044 2056 2058 2058 2058 2053 2038 2035 2034 2029 2002 1991 1980 1980 1980 1981 2034 2034 2034 0 0 0 0 0 2469 2510 2581 2611 2611 2614 2617 2617 2625 2643 2670 2696 2724 2836 3027 3167 3225 3231 3231 3231 3231 3231 3230 3228 3227 3227 3226 3225 3224 3222 3221 3221 3219 3218 3215 3214 3212 3211 3209 3206 3204 3202 3200 3198 3196 3194 3193 3192 3190 3188 3186 3184 3183 3181 3180 3179 3177 3176 3175 3173 3172 3170 3170 3167 3165 3161 3160 3158 3157 3156 3154 3153 3151 3148 3146 3144 3142 3141 3138 3136 3134 3132 3130 3128 3127 3125 3123 3122 3121 3120 3117 3115 3111 3109 3107 3105 3102 3098 3096 3093 3091 3087 3085 3083 3082 3079 3076 3073 3069 3063 3049 3027 2993 2863 2652 2400 2147 2027 2005 2002 2002 2001 2001 2000 2000 1999 1998 1998 1998 1997 1996 1996 1996 1995 1994 1994 1993 1992 1991 1991 1989 1988 1988 1988 1988 1988 1988 1988 1989 1989 1989 1989 1993 1993 1993 1993 1991 1990 1990 1988 1987 1985 1984 1983 1980 1977 1975 1974 1973 1972 1972 1972 1972 1972 1971 1971 1971 1970 1970 1970 1969 1969 1969 1969 1967 1967 1966 1965 1965 1965 1965 1963 1960 1958 1958 1957 1957 1957 1955 1955 1953 1953 1951 1951 1951 1951 1952 1952 1952 1952 1952 1952 1952 1952 1951 1951 1951 1951 1951 1950 1949 1947 1945 1944 1943 1943 1942 1939 1935 1930 1926 1924 1922 1920 1920 1919 1919 1918 1918 1918 1918 1920 1921 1922 1922 1924 1926 1928 1929 1930 1930 1931 1931 1931 1931 1931 1931 1930 1929 1928 1927 1926 1925 1922 1921 1920 1918 1915 1912 1910 1909 1908 1907 1906 1906 1906 1906 1906 1906 1907 1907 1908 1908 1909 1911 1913 1914 1914 1914 1915 1915 1915 1915 1915 1914 1914 1913 1913 1912 1911 1911 1910 1909 1909 1908 1907 1906 1904 1902 1900 1898 1897 1894 1891 1887 1885 1884 1883 1882 1882 1882 1882 1882 1883 1885 1886 1889 1890 1891 1893 1894 1895 1895 1896 1897 1897 1897 1897 1897 1896 1896 1895 1895 1894 1893 1892 1892 1890 1889 1888 1886 1884 1884 1883 1882 1881 1880 1880 1880 1879 1879 1879 1879 1878 1878 1877 1877 1877 1876 1875 1875 1874 1873 1873 1872 1871 1871 1870 1869 1869 1868 1866 1865 1864 1864 1862 1862 1861 1861 1861 1861 1861 1860 1860 1860 1862 1864 1865 1865 1865 1875 1937 2131 2242 2310 2310 2311 2311 2311 2311 2311 2311 2311 2311 2311 2310 2309 2308 2307 2306 2304 2302 2301 2300 2299 2296 2296 2294 2292 2292 2289 2288 2286 2285 2284 2283 2281 2280 2278 2276 2276 2275 2273 2270 2268 2266 2264 2257 2249 2228 2202 2175 2111 2076 2071 2070 2070 2070 2081 2081 2081 2080 2080 2080 2081 2082 2083 2084 2085 2085 2085 2086 2086 2091 2104 2117 2157 2200 2229 2230 2233 2233 2233 2234 2234 2235 2235 2235 2234 2233 2232 2232 2230 2229 2228 2227 2226 2225 2224 2224 2224 2225 2225 2225 2225 2225 2225 2224 2223 2223 2222 2220 2219 2218 2218 2218 2218 2218 2218 2218
2123 2119 2118 2118 2118 2119 2124 2126 2127 2127 2127 2121 2114 2104 2098 2096 2091 2089 2087 2087 2084 2082 2082 2081 2081 2081 2083 2083 2083 2082 2080 2078 2077 2076 2072 2068 2062 2057 2054 2052 2050 2044 2041 2041 2041 2040 2040 2040 2040 2040 2040 2040 2040 2040 2040 2040 2040 2040 2040 2040 2042 2043 2045 2057 2058 2062 2062 2062 2059 2056 2049 2039 2017 2000 1979 1979 1979 1982 2037 2037 2037 0 0 0 0 0 0 2536 2581 2611 2619 2620 2621 2626 2629 2647 2670 2696 2724 2836 3022 3167 3225 3236 3236 3236 3236 3235 3233 3230 3229 3229 3228 3226 3224 3224 3222 3221 3219 3218 3217 3214 3212 3211 3209 3208 3205 3203 3201 3198 3196 3195 3193 3193 3191 3189 3187 3185 3183 3182 3181 3180 3178 3176 3175 3173 3172 3171 3170 3168 3165 3162 3160 3158 3157 3157 3155 3153 3151 3149 3147 3145 3144 3142 3139 3137 3135 3134 3132 3130 3128 3125 3124 3122 3121 3120 3117 3115 3111 3110 3108 3105 3102 3098 3096 3093 3091 3087 3085 3084 3082 3080 3076 3072 3069 3063 3049 3027 2973 2817 2603 2363 2134 2024 2005 2002 2001 2001 2001 2001 2001 2001 2000 1999 1998 1997 1997 1997 1996 1996 1995 1995 1995 1993 1993 1992 1991 1990 1990 1989 1989 1989 1989 1989 1989 1989 1990 1990 1993 1993 1993 1993 1993 1992 1992 1991 1989 1988 1987 1985 1982 1979 1977 1976 1974 1972 1972 1972 1972 1972 1972 1972 1971 1971 1970 1970 1970 1970 1969 1969 1969 1968 1968 1966 1966 1965 1965 1964 1961 1960 1959 1959 1959 1959 1958 1957 1957 1955 1954 1953 1953 1953 1953 1953 1953 1953 1953 1953 1952 1952 1952 1952 1952 1952 1951 1950 1949 1948 1946 1945 1944 1943 1942 1939 1935 1930 1927 1924 1922 1920 1920 1919 1919 1919 1919 1919 1919 1920 1922 1922 1922 1924 1926 1928 1929 1929 1930 1931 1931 1931 1931 1931 1931 1930 1929 1929 1927 1926 1925 1923 1921 1920 1918 1914 1912 1911 1909 1908 1907 1906 1906 1906 1906 1906 1906 1907 1907 1908 1910 1911 1913 1913 1914 1914 1914 1915 1915 1915 1915 1915 1914 1914 1913 1913 1912 1912 1911 1910 1910 1909 1908 1907 1906 1905 1903 1901 1899 1898 1895 1893 1890 1887 1886 1884 1883 1883 1883 1883 1883 1883 1885 1887 1889 1890 1893 1894 1895 1896 1896 1897 1897 1897 1897 1897 1897 1896 1896 1895 1895 1894 1893 1892 1892 1891 1889 1888 1886 1885 1884 1883 1883 1881 1880 1880 1880 1880 1880 1880 1879 1879 1879 1878 1878 1877 1876 1876 1875 1875 1875 1874 1873 1872 1872 1871 1870 1869 1868 1867 1865 1865 1864 1863 1863 1861 1861 1861 1861 1861 1860 1860 1860 1861 1865 1865 1869 1875 1884 1965 2137 2242 2311 2311 2311 2311 2311 2311 2311 2311 2311 2311 2311 2310 2310 2309 2308 2307 2305 2303 2302 2301 2300 2298 2297 2295 2294 2292 2291 2289 2287 2287 2286 2283 2282 2281 2279 2278 2276 2275 2274 2273 2268 2263 2262 2256 2245 2228 2204 2174 2109 2076 2071 2070 2070 2070 2081 2081 2081 2080 2080 2080 2081 2082 2083 2084 2084 2085 2085 2086 2086 2091 2107 2119 2178 2217 2229 2231 2233 2233 2234 2234 2235 2235 2235 2235 2234 2233 2232 2232 2230 2229 2228 2227 2226 2225 2225 2225 2225 2226 2226 2226 2226 2225 2225 2224 2222 2222 2221 2219 2218 2216 2216 2216 2218 2218 2218 2218
2123 2119 2119 2119 2119 2119 2123 2126 2128 2128 2128 2121 2114 2104 2098 2096 2092 2090 2089 2088 2085 2083 2083 2083 2083 2083 2084 2084 2084 2081 2079 2078 2076 2074 2072 2068 2062 2057 2054 2052 2047 2043 2041 2041 2041 2042 2042 2042 2041 2041 2041 2041 2040 2040 2040 2040 2040 2040 2042 2042 2042 2043 2045 2057 2061 2063 2063 2064 2064 2060 2051 2042 2017 2000 1979 1979 1979 1986 2049 2049 2049 1 0 0 0 0 2500 2536 2581 2611 2620 2620 2621 2628 2634 2648 2670 2696 2724 2821 3009 3164 3225 3236 3236 3236 3236 3235 3233 3230 3230 3229 3229 3227 3226 3224 3223 3222 3221 3219 3217 3215 3213 3211 3209 3208 3206 3203 3201 3199 3197 3196 3194 3193 3191 3190 3188 3186 3185 3184 3181 3180 3178 3176 3175 3173 3172 3171 3170 3168 3166 3163 3161 3159 3158 3157 3155 3153 3151 3150 3148 3147 3145 3144 3141 3138 3137 3135 3133 3131 3129 3126 3124 3122 3121 3120 3117 3115 3112 3110 3108 3105 3101 3099 3096 3093 3090 3087 3085 3084 3082 3080 3076 3072 3068 3063 3049 3029 2947 2779 2563 2314 2114 2016 2005 2003 2001 2001 2001 2001 2001 2001 2000 1999 1999 1997 1997 1997 1997 1997 1996 1995 1995 1995 1994 1993 1992 1991 1991 1990 1990 1990 1990 1990 1990 1990 1991 1992 1993 1993 1993 1993 1993 1993 1992 1992 1991 1989 1988 1987 1985 1981 1979 1977 1976 1973 1973 1973 1973 1973 1973 1972 1972 1971 1971 1970 1970 1970 1969 1969 1969 1968 1968 1966 1966 1966 1965 1965 1963 1962 1960 1960 1960 1959 1958 1958 1957 1956 1954 1954 1954 1954 1954 1953 1953 1953 1953 1953 1953 1953 1953 1952 1952 1952 1952 1951 1950 1948 1948 1945 1945 1944 1942 1939 1935 1931 1929 1926 1923 1922 1921 1921 1920 1920 1920 1921 1921 1921 1922 1922 1922 1924 1927 1928 1929 1929 1930 1931 1931 1931 1931 1931 1931 1930 1929 1928 1927 1926 1924 1922 1921 1920 1918 1914 1912 1911 1910 1908 1907 1906 1906 1906 1906 1906 1906 1907 1908 1909 1910 1911 1913 1914 1914 1915 1915 1916 1916 1916 1915 1915 1915 1914 1914 1913 1913 1912 1911 1910 1910 1909 1908 1907 1906 1905 1904 1901 1899 1898 1896 1894 1891 1887 1886 1885 1884 1884 1884 1884 1885 1885 1887 1889 1890 1893 1894 1895 1896 1897 1897 1897 1898 1898 1898 1898 1897 1897 1896 1895 1895 1894 1893 1893 1892 1891 1889 1888 1887 1886 1884 1884 1883 1882 1881 1881 1880 1880 1880 1880 1880 1880 1879 1878 1878 1878 1877 1877 1876 1875 1875 1874 1874 1873 1872 1871 1870 1869 1868 1867 1865 1865 1864 1864 1863 1862 1861 1861 1861 1861 1860 1860 1860 1860 1864 1865 1869 1876 1891 2023 2137 2231 2310 2310 2311 2311 2311 2311 2311 2311 2311 2311 2311 2311 2311 2311 2309 2307 2305 2303 2303 2301 2301 2298 2297 2295 2294 2293 2291 2290 2288 2288 2286 2285 2282 2282 2280 2280 2277 2276 2274 2273 2268 2263 2262 2256 2245 2228 2207 2175 2104 2076 2071 2071 2071 2071 2081 2081 2081 2080 2080 2080 2081 2082 2083 2084 2084 2086 2088 2090 2090 2096 2108 2119 2179 2217 2230 2231 2234 2234 2234 2234 2235 2235 2235 2235 2234 2234 2232 2232 2230 2229 2229 2228 2226 2226 2225 2225 2226 2226 2227 2227 2227 2225 2225 2223 2222 2221 2221 2219 2217 2215 2215 2215 2217 2219 2219 2219
2123 2119 2119 2117 2117 2117 2120 2126 2128 2128 2128 2124 2117 2106 2100 2098 2093 2091 2091 2089 2087 2086 2086 2086 2086 2085 2085 2084 2084 2081 2079 2078 2075 2074 2072 2068 2062 2057 2052 2049 2045 2043 2042 2042 2042 2042 2042 2042 2041 2041 2041 2041 2041 2041 2041 2040 2040 2040 2042 2042 2042 2043 2045 2057 2064 2065 2065 2069 2069 2061 2054 2045 2017 2000 1979 1979 1979 1991 2057 2057 2057 0 0 0 0 0 2 2536 2570 2599 2613 2620 2621 2628 2640 2648 2669 2691 2719 2815 2984 3141 3219 3236 3237 3237 3237 3236 3233 3231 3230 3230 3229 3228 3226 3224 3223 3223 3221 3220 3218 3216 3214 3212 3211 3208 3206 3204 3203 3201 3199 3199 3197 3195 3192 3190 3188 3187 3185 3184 3182 3181 3178 3176 3175 3173 3172 3172 3170 3168 3166 3164 3161 3160 3159 3157 3155 3153 3151 3150 3148 3147 3145 3144 3143 3140 3138 3136 3134 3132 3129 3127 3124 3122 3121 3120 3117 3116 3113 3110 3108 3105 3102 3099 3096 3093 3090 3087 3085 3083 3082 3079 3075 3071 3067 3060 3049 3029 2942 2773 2549 2286 2090 2015 2005 2004 2002 2001 2001 2001 2001 2001 2000 1999 1999 1999 1999 1999 1998 1998 1998 1998 1997 1997 1995 1994 1993 1992 1991 1991 1991 1991 1991 1990 1990 1990 1991 1993 1993 1994 1993 1993 1993 1993 1993 1992 1991 1990 1989 1987 1985 1983 1981 1981 1977 1975 1974 1974 1974 1973 1973 1973 1972 1972 1971 1971 1971 1970 1970 1970 1969 1968 1968 1966 1966 1966 1966 1965 1964 1963 1962 1961 1960 1959 1958 1958 1957 1956 1954 1954 1954 1954 1954 1954 1954 1954 1953 1953 1953 1953 1953 1952 1952 1952 1952 1951 1950 1949 1948 1946 1945 1944 1942 1939 1935 1932 1930 1928 1927 1926 1925 1924 1923 1922 1922 1922 1922 1922 1922 1922 1922 1925 1927 1928 1929 1930 1931 1931 1931 1931 1931 1931 1931 1930 1928 1928 1927 1926 1924 1923 1921 1919 1916 1914 1913 1911 1910 1908 1907 1907 1906 1906 1906 1907 1907 1908 1909 1910 1910 1913 1913 1914 1915 1915 1916 1916 1916 1916 1915 1915 1915 1914 1914 1913 1913 1912 1911 1911 1910 1909 1909 1908 1906 1905 1904 1902 1899 1898 1896 1894 1891 1889 1886 1886 1886 1885 1886 1886 1886 1886 1888 1890 1892 1893 1895 1896 1897 1897 1897 1898 1898 1898 1898 1898 1898 1897 1896 1895 1895 1894 1894 1893 1892 1891 1890 1888 1887 1887 1885 1885 1883 1882 1881 1881 1881 1881 1880 1880 1880 1880 1879 1878 1878 1878 1878 1878 1877 1876 1876 1875 1874 1873 1873 1872 1871 1870 1869 1868 1866 1866 1865 1864 1863 1862 1862 1861 1861 1861 1860 1860 1860 1860 1864 1865 1869 1876 1891 2023 2142 2228 2310 2311 2311 2311 2310 2310 2310 2311 2311 2312 2312 2312 2312 2311 2309 2308 2306 2305 2304 2302 2301 2299 2297 2296 2295 2293 2291 2290 2290 2289 2287 2285 2285 2283 2281 2280 2278 2276 2275 2273 2269 2262 2261 2256 2245 2228 2207 2172 2104 2076 2071 2071 2071 2074 2081 2081 2081 2081 2081 2081 2081 2082 2084 2084 2084 2086 2090 2092 2094 2096 2108 2119 2180 2220 2235 2235 2235 2235 2236 2236 2236 2236 2236 2235 2235 2234 2233 2232 2231 2230 2229 2228 2227 2226 2226 2226 2226 2226 2227 2227 2227 2225 2224 2223 2222 2221 2221 2219 2217 2215 2215 2215 2215 2218 2218 2218
